ply
format ascii 1.0
element vertex 1282
property float x
property float y
property float z
property uchar red
property uchar green
property uchar blue
end_header
-0.018019 -0.710208 -0.483934 0 255 0
-0.014091 -0.217386 -0.372182 0 0 255
-0.004198 0.084183 -0.344555 153 0 76
-0.008879 -0.533734 -0.453592 0 0 255
-0.144453 0.266612 0.470762 76 0 153
0.000164 0.411217 -0.267912 153 0 76
0.005762 0.407467 -0.226506 204 51 127
-0.103726 0.258311 0.556535 76 0 153
-0.006455 -0.704526 -0.479569 0 255 0
0.000721 0.456177 0.324245 76 0 153
-0.079748 0.284110 0.332558 76 0 153
0.107295 -0.782118 -0.516093 0 255 0
-0.104854 -0.789008 -0.528718 0 255 0
0.005726 -0.654930 -0.481956 204 51 127
0.013886 -0.494297 -0.442494 204 51 127
0.005809 0.458907 0.382564 76 0 153
0.009182 -0.619993 -0.476320 204 51 127
-0.001178 0.535630 -0.209834 204 51 127
0.000933 -0.658387 -0.499403 153 0 76
-0.027033 0.391618 0.522315 76 0 153
0.030867 0.274259 0.582969 76 0 153
-0.012336 0.488556 0.050473 153 76 0
0.020601 0.315915 0.317815 76 0 153
0.040684 0.280907 0.578418 76 0 153
0.084108 -0.774261 -0.431699 0 255 0
-0.058375 -0.774261 -0.460718 0 255 0
-0.014335 0.004566 -0.319423 0 0 255
-0.017482 0.497442 -0.005616 153 76 0
0.078539 -0.784501 -0.408432 0 255 0
-0.059856 0.373504 0.514330 76 0 153
-0.071401 -0.774261 -0.563065 0 255 0
0.051975 0.348007 0.343254 76 0 153
-0.099238 0.375304 0.450845 76 0 153
-0.008777 0.333632 0.553306 76 0 153
0.011633 0.440549 0.378008 76 153 0
0.137750 0.273751 0.474758 76 0 153
0.091659 -0.808154 -0.498542 0 255 0
-0.013456 0.530458 -0.184585 204 51 127
-0.010338 -0.808154 -0.424337 0 255 0
0.004307 -0.774261 -0.443492 0 255 0
-0.017944 0.468115 0.140906 153 76 0
-0.009429 -0.808154 -0.480906 0 255 0
-0.070801 0.433722 0.404922 76 153 0
-0.010785 0.521709 -0.174276 153 76 0
0.079520 -0.784907 -0.565101 0 255 0
-0.016569 -0.241316 -0.383970 0 0 255
0.089620 0.388254 0.442352 76 0 153
0.063568 0.279800 0.324230 76 0 153
-0.008887 -0.624757 -0.471719 0 255 0
0.000732 0.516603 -0.207484 204 51 127
-0.011913 -0.468504 -0.432083 0 0 255
-0.018827 -0.666184 -0.474768 0 255 0
-0.015143 0.478022 0.070294 153 76 0
0.071428 0.429346 0.430398 76 153 0
0.006825 -0.794081 -0.496312 0 255 0
-0.011147 0.351774 0.423776 76 153 0
-0.012223 0.517428 -0.129125 153 76 0
0.049185 -0.774261 -0.498556 0 255 0
0.103266 0.293367 0.365300 76 0 153
0.070922 0.435924 0.434960 76 153 0
-0.005192 0.472386 0.405219 76 153 0
-0.016819 0.453681 0.269096 153 76 0
0.070579 0.385948 0.493709 76 0 153
0.099883 -0.774261 -0.506555 0 255 0
-0.132551 0.265309 0.385866 76 0 153
-0.016736 0.068210 -0.306670 0 0 255
-0.023813 -0.774261 -0.552770 0 255 0
0.008749 -0.376846 -0.410277 204 51 127
0.037288 0.293671 0.572677 76 0 153
0.018590 0.361339 0.332175 76 0 153
0.033446 -0.774261 -0.463650 0 255 0
-0.002654 -0.610063 -0.506894 153 0 76
0.103495 -0.808154 -0.496121 0 255 0
-0.087097 -0.774261 -0.509218 0 255 0
-0.009504 -0.794098 -0.512079 0 255 0
0.008471 0.506279 -0.075986 76 0 153
0.095608 0.360826 0.397821 76 0 153
-0.140989 0.274087 0.416777 76 0 153
0.008520 0.101199 -0.304779 204 51 127
-0.044385 -0.808154 -0.497936 0 255 0
-0.016254 -0.808154 -0.582647 0 255 0
-0.010683 -0.738500 -0.490464 0 255 0
-0.096375 0.349594 0.489191 76 0 153
-0.008802 0.344197 -0.243091 0 0 255
0.028012 -0.774261 -0.488191 0 255 0
0.008674 -0.609907 -0.473882 204 51 127
0.017390 -0.669927 -0.489727 153 0 76
-0.013299 0.455548 0.259749 153 76 0
0.013464 -0.726921 -0.497147 0 255 0
-0.002150 -0.366122 -0.454496 153 0 76
-0.013612 -0.774261 -0.462923 0 255 0
-0.017393 0.510864 -0.088190 153 76 0
0.029449 0.285939 0.576938 76 0 153
0.087524 0.389402 0.417492 76 0 153
-0.014445 0.279519 -0.254075 0 0 255
0.081539 0.333373 0.358440 76 0 153
-0.024415 0.386336 0.341272 76 0 153
-0.000833 0.347127 -0.277339 153 0 76
-0.015316 0.525233 -0.178199 153 76 0
0.063843 -0.774261 -0.486443 0 255 0
0.102311 -0.774261 -0.479376 0 255 0
-0.000747 -0.162870 -0.399533 153 0 76
-0.023015 0.431081 0.501646 76 0 153
-0.038795 -0.774261 -0.475353 0 255 0
0.013487 0.059643 -0.312479 204 51 127
-0.028844 0.316223 0.562975 76 0 153
0.008482 0.501107 -0.042576 76 0 153
0.001437 -0.625925 -0.512460 153 0 76
0.043365 0.282223 0.314625 76 0 153
0.001546 -0.381345 -0.456163 153 0 76
0.052081 -0.791707 -0.388905 0 255 0
0.050575 -0.808154 -0.405305 0 255 0
0.015619 0.513244 -0.106883 76 0 153
0.103962 0.256237 0.552243 76 0 153
0.055778 0.422079 0.484087 76 0 153
0.016281 -0.774261 -0.556956 0 255 0
-0.015710 0.349142 0.545452 76 0 153
-0.063536 0.427872 0.408033 76 153 0
0.019683 0.470013 0.411916 76 153 0
-0.016285 0.477953 -0.213079 0 0 255
-0.048203 -0.774261 -0.392859 0 255 0
-0.008881 -0.335408 -0.406428 0 0 255
-0.018734 0.514143 -0.138602 153 76 0
-0.003871 0.339720 -0.284079 153 0 76
-0.002164 -0.414532 -0.466092 153 0 76
0.008383 -0.760237 -0.470865 0 255 0
0.038754 0.413345 0.500336 76 0 153
0.014857 0.498753 -0.011717 76 0 153
-0.014036 -0.550536 -0.451488 0 0 255
0.020819 0.436298 0.378293 76 153 0
0.012933 -0.774261 -0.509743 0 255 0
0.066712 -0.808154 -0.532045 0 255 0
0.009688 -0.719280 -0.500828 0 255 0
0.041702 -0.774261 -0.413016 0 255 0
-0.047926 0.309703 0.323428 76 0 153
-0.016177 -0.294777 -0.392373 0 0 255
-0.017186 0.481273 0.096679 153 76 0
-0.038251 -0.774261 -0.430844 0 255 0
-0.010154 -0.644748 -0.481284 0 255 0
0.005801 -0.404771 -0.420465 204 51 127
0.012527 -0.457288 -0.436635 204 51 127
-0.000721 -0.594532 -0.502944 153 0 76
-0.083957 -0.808154 -0.549425 0 255 0
-0.041121 0.243126 0.296655 76 0 153
0.133368 0.285113 0.465289 76 0 153
0.001468 -0.542130 -0.491976 153 0 76
-0.013208 -0.255275 -0.381252 0 0 255
-0.018876 0.487605 0.042150 153 76 0
0.012300 -0.511279 -0.443056 204 51 127
0.017454 -0.679767 -0.499672 153 0 76
0.042568 -0.808154 -0.588452 0 255 0
0.073327 -0.789016 -0.570589 0 255 0
0.020067 -0.774261 -0.407389 0 255 0
0.010088 -0.038646 -0.329695 204 51 127
0.047977 -0.808154 -0.397890 0 255 0
-0.005510 0.487486 0.014140 153 76 0
-0.027704 -0.808154 -0.393296 0 255 0
-0.013835 0.458946 0.188992 153 76 0
0.007604 -0.774261 -0.455617 0 255 0
0.001606 0.507600 -0.240692 153 0 76
-0.008826 -0.283997 -0.393074 0 0 255
-0.004050 -0.629918 -0.514216 153 0 76
-0.010045 0.529506 -0.191482 204 51 127
-0.002148 0.430471 0.450505 76 153 0
-0.001084 -0.086726 -0.381191 153 0 76
-0.001790 0.433943 0.502751 76 153 0
0.005894 0.528742 -0.178614 76 0 153
0.085369 0.273236 0.554093 76 0 153
-0.014318 -0.405734 -0.417075 0 0 255
-0.114323 0.284565 0.368346 76 0 153
-0.046626 0.264919 0.584899 76 0 153
0.012696 0.443454 -0.216158 204 51 127
-0.015400 -0.783259 -0.597963 0 255 0
0.005778 0.322010 -0.247102 204 51 127
0.012690 -0.550938 -0.452856 204 51 127
-0.016004 0.455711 0.314231 76 0 153
0.065315 0.388671 0.369965 76 0 153
-0.031808 -0.774261 -0.450290 0 255 0
-0.009671 0.438378 0.364442 76 0 153
0.129675 0.242999 0.372498 76 0 153
0.067348 0.434148 0.450171 76 153 0
-0.003263 -0.391686 -0.459922 153 0 76
-0.072187 0.436224 0.454946 76 153 0
0.048885 0.417157 0.491496 76 0 153
0.001718 -0.533635 -0.490917 153 0 76
0.063302 -0.774261 -0.512473 0 255 0
0.056473 -0.808154 -0.531396 0 255 0
-0.059715 -0.774261 -0.424019 0 255 0
0.009967 0.204553 -0.271811 204 51 127
0.061628 0.429644 0.381677 76 153 0
-0.008736 0.068365 -0.307601 0 0 255
0.022597 0.374656 0.337780 76 0 153
0.061611 0.350231 0.523349 76 0 153
-0.011277 0.461949 -0.218834 0 0 255
-0.012904 0.454322 0.218022 153 76 0
-0.068863 0.411717 0.478870 76 0 153
0.004946 0.420678 0.507614 76 0 153
-0.087217 0.334979 0.358168 76 0 153
-0.012965 0.362163 0.538596 76 0 153
0.076544 0.416243 0.417713 76 0 153
0.004041 0.475411 0.439135 76 153 0
-0.015949 0.465011 0.201254 153 76 0
0.008362 0.350542 0.543986 76 0 153
-0.017229 0.403417 0.517270 76 0 153
-0.086842 0.374328 0.482600 76 0 153
0.013869 0.183615 -0.280862 204 51 127
-0.103250 0.337127 0.488897 76 0 153
-0.008720 -0.293958 -0.393549 0 0 255
0.067468 0.383769 0.499469 76 0 153
0.066370 0.349142 0.351149 76 0 153
-0.009571 0.426733 0.407776 76 153 0
-0.111856 -0.780133 -0.501760 0 255 0
-0.027717 0.427122 0.366548 76 153 0
0.105981 0.263179 0.546778 76 0 153
0.074002 0.265316 0.324332 76 0 153
-0.055593 -0.774261 -0.483030 0 255 0
0.001109 -0.228850 -0.416504 153 0 76
-0.030414 -0.787424 -0.595986 0 255 0
0.001586 0.357213 -0.279153 153 0 76
-0.014201 0.158333 -0.282740 0 0 255
-0.106570 -0.808154 -0.467124 0 255 0
0.102809 -0.789786 -0.527200 0 255 0
-0.084009 0.346412 0.360948 76 0 153
-0.003467 0.548438 -0.203760 204 51 127
0.008540 0.484275 0.068814 76 0 153
-0.062845 0.276544 0.319619 76 0 153
0.070028 0.289445 0.554313 76 0 153
0.001744 0.266835 -0.299354 153 0 76
0.007514 -0.214336 -0.379069 204 51 127
0.093665 0.365337 0.468550 76 0 153
-0.003591 -0.348419 -0.444994 153 0 76
0.014578 0.511058 -0.131065 76 0 153
0.013190 -0.137675 -0.359791 204 51 127
-0.101998 -0.808154 -0.482610 0 255 0
-0.049932 -0.774261 -0.576365 0 255 0
0.009226 0.456470 0.244506 76 0 153
0.016525 0.516947 -0.141213 76 0 153
0.013300 0.530688 -0.205032 76 0 153
0.121455 0.309881 0.470098 76 0 153
-0.001916 -0.723907 -0.477902 0 255 0
-0.015776 0.447740 0.258580 153 76 0
0.034055 0.459635 0.419156 76 153 0
-0.009504 -0.803570 -0.570805 0 255 0
0.049708 0.439446 0.413067 76 153 0
-0.004428 -0.571547 -0.500701 153 0 76
-0.013319 0.497647 -0.000354 153 76 0
0.120059 0.275565 0.508559 76 0 153
0.125682 0.295974 0.415781 76 0 153
0.043600 0.396053 0.507558 76 0 153
0.082629 -0.790276 -0.561050 0 255 0
-0.004393 0.047915 -0.352803 153 0 76
0.013630 0.433936 0.304312 76 0 153
0.005884 -0.540850 -0.454391 204 51 127
-0.027128 0.266189 0.588945 76 0 153
-0.008059 0.517938 -0.184117 204 51 127
-0.064562 -0.808154 -0.571247 0 255 0
0.106068 0.318996 0.386344 76 0 153
0.011062 -0.682201 -0.473830 153 0 76
0.035529 -0.774261 -0.406549 0 255 0
-0.013679 0.448810 0.372968 76 0 153
0.052159 -0.808154 -0.423010 0 255 0
0.017838 -0.677489 -0.479202 153 0 76
-0.029541 0.449411 0.393238 76 153 0
-0.049726 0.432938 0.371378 76 153 0
0.001806 0.461067 0.354563 76 0 153
0.064524 -0.787591 -0.397468 0 255 0
0.010036 0.451266 0.282599 76 0 153
0.090967 -0.808154 -0.490210 0 255 0
0.012968 0.462728 0.215628 76 0 153
-0.033030 0.464130 0.426707 76 153 0
-0.058116 0.319706 0.546577 76 0 153
0.013831 -0.399179 -0.418801 204 51 127
-0.002002 0.464928 0.457194 76 153 0
0.071955 0.430028 0.403218 76 153 0
-0.082942 0.406957 0.458754 76 0 153
-0.142125 0.271515 0.427128 76 0 153
0.001726 -0.002069 -0.364902 153 0 76
0.016992 -0.744878 -0.489256 0 255 0
-0.010726 -0.131336 -0.359552 0 0 255
-0.005675 0.456974 0.346350 76 0 153
-0.014656 -0.230392 -0.375647 0 0 255
-0.115171 0.336839 0.447863 76 0 153
-0.016303 -0.756487 -0.498936 0 255 0
-0.012523 0.198480 -0.273279 0 0 255
0.016417 0.463001 0.454253 76 153 0
0.055611 0.434996 0.432700 76 153 0
0.001826 0.239684 -0.306450 153 0 76
0.076995 -0.774261 -0.521961 0 255 0
0.001116 -0.797272 -0.375322 0 255 0
-0.088598 -0.777099 -0.556755 0 255 0
-0.008378 -0.748887 -0.470212 0 255 0
0.008919 -0.720870 -0.473311 0 255 0
-0.016619 0.527714 -0.202029 0 0 255
-0.014825 0.449815 0.245310 153 76 0
-0.013260 0.455577 0.210072 153 76 0
0.109406 -0.785415 -0.474764 0 255 0
-0.043603 0.431562 0.462974 76 153 0
0.104558 0.353404 0.452496 76 0 153
-0.102374 0.349143 0.394731 76 0 153
0.085032 0.395077 0.414937 76 0 153
0.072278 0.366280 0.365897 76 0 153
-0.000800 -0.761903 -0.477592 0 255 0
-0.041795 -0.808154 -0.472874 0 255 0
-0.013212 -0.011744 -0.323281 0 0 255
0.110618 0.246877 0.346044 76 0 153
0.105923 0.280773 0.361096 76 0 153
0.010714 0.086904 -0.308057 204 51 127
0.074955 0.422580 0.433125 76 0 153
-0.010805 0.475017 0.104473 153 76 0
0.055960 -0.774261 -0.453149 0 255 0
0.047661 0.428600 0.485434 76 0 153
-0.012725 0.443369 0.361657 76 0 153
-0.015267 0.529624 -0.212260 0 0 255
0.113854 0.293399 0.381430 76 0 153
-0.113631 -0.797564 -0.486541 0 255 0
-0.013121 0.497938 -0.052450 153 76 0
0.108670 0.343199 0.451446 76 0 153
-0.103096 -0.789060 -0.441852 0 255 0
0.044420 -0.774261 -0.576278 0 255 0
-0.021537 0.441340 0.381610 76 153 0
0.007925 -0.258486 -0.382196 204 51 127
-0.004112 -0.266117 -0.425897 153 0 76
-0.001496 -0.808154 -0.461279 0 255 0
0.007829 -0.647550 -0.482692 204 51 127
0.107633 -0.786502 -0.461293 0 255 0
-0.047949 0.235003 0.294885 76 0 153
-0.088765 0.375231 0.390188 76 0 153
0.092415 0.306747 0.529460 76 0 153
-0.105861 -0.774261 -0.459506 0 255 0
-0.020668 -0.694547 -0.491668 0 255 0
-0.035083 -0.808154 -0.428305 0 255 0
0.020147 0.239204 0.293673 76 0 153
-0.011262 -0.261579 -0.391047 0 0 255
-0.124444 0.310452 0.404737 76 0 153
0.082007 -0.808154 -0.560656 0 255 0
-0.057677 -0.774261 -0.467145 0 255 0
0.012035 -0.542082 -0.457384 204 51 127
0.049410 -0.808154 -0.477542 0 255 0
0.022486 0.454115 0.460539 76 153 0
-0.029349 0.465083 0.439257 76 153 0
0.010201 0.496801 0.000504 76 0 153
0.125501 0.301772 0.449329 76 0 153
0.012822 -0.774261 -0.417932 0 255 0
0.011763 -0.808154 -0.523673 0 255 0
0.019659 0.170823 0.365558 76 153 0
0.040701 0.436950 0.490006 76 153 0
0.007958 0.280292 -0.261737 204 51 127
-0.022726 0.425448 0.505083 76 0 153
-0.119281 0.326792 0.439351 76 0 153
0.121275 0.308426 0.426384 76 0 153
0.008349 -0.584366 -0.467918 204 51 127
-0.098944 -0.808154 -0.460722 0 255 0
0.083761 -0.808154 -0.471931 0 255 0
-0.103469 0.306490 0.365538 76 0 153
0.033622 0.322783 0.557648 76 0 153
0.010478 -0.418643 -0.420127 204 51 127
-0.104928 -0.781214 -0.528540 0 255 0
0.013496 0.020137 -0.321873 204 51 127
0.076532 -0.800512 -0.406683 0 255 0
0.010865 0.430818 0.370992 76 153 0
0.003821 0.404503 0.516061 76 0 153
-0.002973 0.289242 0.310088 76 0 153
-0.010960 0.440630 -0.215727 0 0 255
-0.011850 0.436409 0.485971 76 153 0
0.055555 -0.808154 -0.516653 0 255 0
0.001078 -0.576290 -0.499696 153 0 76
-0.114565 0.332643 0.473349 76 0 153
0.015062 0.452088 0.275796 76 0 153
-0.016370 -0.096421 -0.349707 0 0 255
-0.053925 -0.808154 -0.528419 0 255 0
0.015302 0.431037 0.456976 76 153 0
0.072277 0.259832 0.321422 76 0 153
-0.014210 0.499360 -0.061641 153 76 0
0.012172 0.233510 -0.272602 204 51 127
-0.010554 0.274934 -0.262686 0 0 255
-0.013129 -0.440244 -0.425287 0 0 255
0.032039 0.386168 0.520961 76 0 153
-0.109222 0.323484 0.491286 76 0 153
-0.058637 -0.774261 -0.493541 0 255 0
-0.002269 0.301192 -0.294602 153 0 76
-0.051476 -0.774261 -0.568469 0 255 0
-0.017712 0.277559 0.306829 76 0 153
-0.019868 -0.775892 -0.597050 0 255 0
0.081895 0.379782 0.477287 76 0 153
-0.015236 0.411381 0.348896 76 0 153
-0.002303 -0.529100 -0.493473 153 0 76
-0.030454 0.431303 0.497322 76 0 153
0.009073 0.464738 0.163944 76 0 153
0.008300 -0.752204 -0.485520 0 255 0
0.004724 -0.710106 -0.479701 0 255 0
0.017759 0.266063 0.587634 76 0 153
0.045724 -0.808154 -0.579228 0 255 0
-0.092721 0.327668 0.362367 76 0 153
0.025147 0.428005 0.366315 76 153 0
-0.008844 0.266244 -0.262501 0 0 255
0.007824 -0.729046 -0.483507 0 255 0
-0.012042 -0.049175 -0.332258 0 0 255
-0.017702 0.310095 0.317074 76 0 153
0.100880 0.306757 0.370437 76 0 153
0.020842 0.432490 0.479717 76 153 0
-0.092290 0.284296 0.340083 76 0 153
0.009528 0.523895 -0.171225 76 0 153
-0.019267 -0.742935 -0.483085 0 255 0
-0.002301 0.373711 -0.277210 153 0 76
0.048862 0.261277 0.309789 76 0 153
-0.013127 -0.219226 -0.380959 0 0 255
0.041488 0.442186 0.400542 76 153 0
-0.106352 -0.801155 -0.525103 0 255 0
-0.000050 0.365675 0.334072 76 0 153
-0.034813 0.456142 0.446289 76 153 0
-0.014300 0.466624 0.191830 153 76 0
-0.073891 0.396090 0.379642 76 0 153
-0.014373 0.215215 -0.269316 0 0 255
-0.010848 0.424464 -0.219655 0 0 255
0.015053 0.454518 0.222067 76 0 153
0.005893 0.137853 -0.293045 204 51 127
0.011973 -0.591457 -0.461841 204 51 127
0.075383 0.422843 0.441309 76 0 153
-0.063520 0.410916 0.488954 76 0 153
0.046346 0.374866 0.518472 76 0 153
-0.033007 -0.808154 -0.575767 0 255 0
-0.016767 0.074561 -0.305764 0 0 255
-0.016745 -0.129602 -0.353909 0 0 255
0.046582 0.445589 0.422823 76 153 0
0.081652 0.318149 0.529596 76 0 153
-0.012021 -0.685588 -0.498910 0 255 0
-0.144300 0.266627 0.449035 76 0 153
0.084702 0.390177 0.400446 76 0 153
-0.142713 0.265625 0.487158 76 0 153
0.121032 0.307000 0.413733 76 0 153
0.013347 -0.096206 -0.345216 204 51 127
0.008308 -0.507327 -0.449542 204 51 127
0.074312 0.437064 0.415041 76 153 0
0.130250 0.283181 0.405501 76 0 153
0.012399 -0.552725 -0.459500 204 51 127
0.038109 0.334583 0.331122 76 0 153
0.006825 -0.775635 -0.498059 0 255 0
0.013863 -0.185262 -0.368549 204 51 127
-0.032463 0.431794 0.478820 76 153 0
0.006231 -0.808154 -0.435149 0 255 0
0.015900 -0.720804 -0.484847 0 255 0
0.010221 0.510635 -0.085132 76 0 153
0.006825 -0.785838 -0.563299 0 255 0
0.020453 0.130601 0.366728 76 153 0
0.067946 0.359506 0.355773 76 0 153
0.027389 -0.808154 -0.429763 0 255 0
-0.034677 -0.774261 -0.387271 0 255 0
0.018658 -0.774261 -0.433267 0 255 0
0.005871 -0.699512 -0.480635 0 255 0
0.000307 0.274058 -0.300673 153 0 76
-0.013730 0.489657 0.016139 153 76 0
-0.010896 -0.725848 -0.484773 0 255 0
-0.011236 0.223384 -0.275584 0 0 255
0.011953 0.289622 0.575559 76 0 153
0.028789 0.425974 0.372832 76 153 0
-0.033503 0.366311 0.336496 76 0 153
-0.004243 -0.245669 -0.421320 153 0 76
0.016074 -0.662039 -0.479536 153 0 76
-0.011941 0.485139 0.033770 153 76 0
0.005894 0.120867 -0.297118 204 51 127
0.032534 0.358312 0.336940 76 0 153
0.076843 -0.808154 -0.427379 0 255 0
-0.024441 -0.808154 -0.477179 0 255 0
0.100367 -0.780316 -0.441718 0 255 0
0.040662 0.449836 0.412417 76 153 0
0.001165 -0.605027 -0.510601 153 0 76
-0.018281 0.452971 0.322181 76 0 153
-0.039936 0.282039 0.578723 76 0 153
-0.032820 -0.808154 -0.465433 0 255 0
-0.043937 0.439617 0.489236 76 153 0
-0.012442 0.517762 -0.189307 204 51 127
-0.056438 0.434680 0.451809 76 153 0
0.026173 0.431410 0.353869 76 153 0
0.010756 0.443462 0.292166 76 0 153
-0.013715 0.509883 -0.076105 153 76 0
-0.080259 0.373005 0.495341 76 0 153
-0.011368 -0.338028 -0.401056 0 0 255
0.004930 0.531435 -0.192783 76 0 153
-0.125228 0.312048 0.414316 76 0 153
-0.020377 0.525903 -0.213040 0 0 255
0.007340 -0.702116 -0.494894 0 255 0
-0.002822 0.490242 -0.243371 153 0 76
-0.009504 -0.783618 -0.559200 0 255 0
-0.014219 -0.512856 -0.442509 0 0 255
-0.002753 0.150945 -0.324627 153 0 76
0.077804 -0.774261 -0.486252 0 255 0
-0.055076 0.434368 0.409946 76 153 0
0.000478 0.095525 -0.343327 153 0 76
0.006645 -0.050940 -0.334260 204 51 127
0.011312 -0.774261 -0.540914 0 255 0
0.080698 0.395408 0.463471 76 0 153
-0.002758 -0.738005 -0.478211 0 255 0
0.000719 0.556600 -0.185728 204 51 127
0.013794 -0.317809 -0.398702 204 51 127
-0.121140 0.322727 0.465012 76 0 153
0.007034 0.184938 -0.283585 204 51 127
0.001736 0.172297 -0.321947 153 0 76
-0.146875 0.260763 0.470204 76 0 153
0.054294 -0.774261 -0.413607 0 255 0
-0.055049 0.308593 0.554766 76 0 153
0.045574 0.269481 0.582097 76 0 153
0.013944 -0.651122 -0.478756 204 51 127
-0.032764 0.425994 0.373737 76 153 0
-0.033466 -0.807093 -0.594727 0 255 0
-0.007173 0.328652 0.322617 76 0 153
-0.029393 0.443528 0.469967 76 153 0
-0.003549 0.518103 -0.241797 153 0 76
0.013961 -0.044731 -0.336772 204 51 127
0.007729 0.433160 0.307859 76 0 153
0.118911 0.278684 0.379488 76 0 153
-0.016833 0.325025 0.558029 76 0 153
0.025725 -0.774261 -0.588506 0 255 0
0.135191 0.262690 0.393785 76 0 153
0.005913 0.289517 -0.257354 204 51 127
0.028796 -0.797947 -0.595553 0 255 0
-0.101677 0.316408 0.369663 76 0 153
0.006060 0.339483 -0.245902 204 51 127
0.028799 -0.808154 -0.499215 0 255 0
-0.003468 -0.669737 -0.496036 153 0 76
-0.056876 0.427061 0.411521 76 153 0
-0.002384 0.038761 -0.357391 153 0 76
-0.004321 -0.143015 -0.397288 153 0 76
-0.001087 0.181531 -0.316930 153 0 76
0.099629 -0.774261 -0.500221 0 255 0
0.012184 0.258716 -0.266588 204 51 127
-0.096097 -0.774261 -0.478059 0 255 0
-0.052325 -0.774261 -0.554719 0 255 0
-0.073303 0.416584 0.393562 76 0 153
0.010601 -0.808154 -0.398805 0 255 0
-0.012021 -0.677808 -0.493373 0 255 0
-0.027266 -0.774261 -0.475459 0 255 0
-0.035356 0.413510 0.504898 76 0 153
0.098796 0.264779 0.339779 76 0 153
0.022217 -0.775151 -0.595657 0 255 0
-0.084976 -0.808154 -0.536668 0 255 0
0.005748 -0.059498 -0.337382 204 51 127
0.046107 -0.808154 -0.463312 0 255 0
0.053581 -0.774261 -0.541205 0 255 0
0.031184 0.449832 0.397370 76 153 0
-0.112112 -0.802378 -0.475005 0 255 0
0.011570 0.108309 -0.302912 204 51 127
-0.027937 0.428889 0.432425 76 153 0
-0.025783 -0.808154 -0.519855 0 255 0
0.014378 0.497538 -0.048386 76 0 153
-0.003467 0.560100 -0.194997 204 51 127
-0.016857 0.234835 -0.269316 0 0 255
0.028532 0.462764 0.441353 76 153 0
0.045858 -0.808154 -0.438947 0 255 0
0.010120 0.428847 0.431936 76 153 0
-0.102045 0.358560 0.470865 76 0 153
-0.027931 -0.808154 -0.489883 0 255 0
-0.001892 -0.493568 -0.478758 153 0 76
-0.013751 -0.681569 -0.480320 0 255 0
0.044100 -0.808154 -0.546258 0 255 0
-0.018542 0.466396 0.402660 76 153 0
-0.077527 0.276792 0.560571 76 0 153
0.031933 0.237123 0.292682 76 0 153
0.007413 -0.350166 -0.404607 204 51 127
0.022517 0.442612 0.473798 76 153 0
-0.008564 0.241110 0.295092 76 0 153
0.008644 0.477851 -0.215114 204 51 127
0.018947 -0.808154 -0.500063 0 255 0
0.001073 0.339843 0.325906 76 0 153
-0.007835 0.351774 0.433276 76 153 0
-0.010695 0.516938 -0.154092 153 76 0
-0.020195 -0.676148 -0.498257 0 255 0
-0.004411 -0.154159 -0.400604 153 0 76
0.098200 0.362632 0.413066 76 0 153
-0.013014 0.457307 0.199436 153 76 0
0.041770 0.448801 0.442033 76 153 0
-0.011069 0.474053 0.133260 153 76 0
0.091567 -0.808154 -0.548355 0 255 0
-0.038915 0.346529 0.332150 76 0 153
-0.042541 0.416298 0.499226 76 0 153
-0.066148 0.435177 0.458124 76 153 0
0.027083 -0.774261 -0.414430 0 255 0
0.048516 -0.774261 -0.394469 0 255 0
-0.031466 0.427799 0.419957 76 153 0
-0.076239 0.370476 0.504738 76 0 153
0.005906 -0.477983 -0.435810 204 51 127
0.011627 -0.393076 -0.414300 204 51 127
0.001170 0.020170 -0.360829 153 0 76
-0.008899 0.161312 -0.288210 0 0 255
0.084927 0.251317 0.324866 76 0 153
-0.011679 0.424597 0.383359 76 153 0
-0.017027 0.389929 0.524279 76 0 153
-0.016681 -0.083309 -0.346228 0 0 255
-0.101126 0.366243 0.405035 76 0 153
0.008856 0.038009 -0.311518 204 51 127
0.110965 -0.786344 -0.486611 0 255 0
0.013873 0.439650 0.300397 76 0 153
0.010016 -0.222785 -0.381815 204 51 127
0.059639 0.397601 0.367177 76 0 153
-0.016858 -0.036889 -0.333992 0 0 255
-0.029688 0.466405 0.420710 76 153 0
-0.110471 0.348318 0.456753 76 0 153
-0.009504 -0.733219 -0.502234 0 255 0
0.073216 -0.808154 -0.460386 0 255 0
-0.019332 0.461830 0.397279 76 153 0
-0.011729 0.114163 -0.301678 0 0 255
0.008372 -0.774261 -0.381507 0 255 0
-0.064870 0.434331 0.439284 76 153 0
0.068847 -0.808154 -0.563755 0 255 0
0.037397 0.371176 0.526474 76 0 153
-0.084648 -0.774261 -0.456337 0 255 0
-0.143801 0.267274 0.414768 76 0 153
-0.005979 0.396305 0.520625 76 0 153
0.012513 0.043724 -0.311140 204 51 127
-0.001330 -0.473528 -0.438039 204 51 127
0.084141 0.307654 0.534272 76 0 153
-0.009504 -0.788931 -0.499690 0 255 0
-0.015540 0.459164 -0.212321 0 0 255
-0.092453 0.391592 0.446487 76 0 153
0.055444 0.383267 0.507552 76 0 153
-0.010904 -0.510439 -0.449956 0 0 255
-0.100958 0.330064 0.499538 76 0 153
0.060359 -0.808154 -0.573263 0 255 0
-0.001200 -0.307044 -0.433933 153 0 76
-0.094953 -0.774261 -0.535700 0 255 0
-0.009997 0.458350 0.392615 76 0 153
-0.018216 0.471837 0.439722 76 153 0
-0.004050 -0.644350 -0.518607 153 0 76
0.010481 -0.434365 -0.432153 204 51 127
0.001683 0.122288 -0.333540 153 0 76
0.029083 0.411903 0.507459 76 0 153
-0.002530 -0.050644 -0.372850 153 0 76
0.012164 0.515454 -0.161499 76 0 153
-0.017370 0.376239 0.337891 76 0 153
-0.018258 -0.762306 -0.478247 0 255 0
0.007627 0.488121 0.011183 153 76 0
0.016225 0.439913 0.487928 76 153 0
0.047905 0.426973 0.372292 76 153 0
-0.012096 0.385655 -0.228748 0 0 255
0.022395 0.350596 0.543527 76 0 153
0.085273 0.369990 0.480646 76 0 153
-0.056452 -0.808154 -0.518532 0 255 0
0.101272 0.277287 0.351737 76 0 153
0.019408 0.390309 0.522965 76 0 153
-0.111821 -0.806479 -0.502023 0 255 0
-0.018849 0.476166 0.110284 153 76 0
0.013228 0.456448 0.203873 76 0 153
0.013881 -0.365243 -0.411686 204 51 127
-0.151678 0.248613 0.435146 76 0 153
-0.079633 0.413128 0.402001 76 0 153
-0.000493 -0.467627 -0.478811 153 0 76
-0.001911 0.431550 0.462838 76 153 0
-0.037051 -0.774261 -0.575854 0 255 0
-0.063734 -0.808154 -0.554768 0 255 0
0.098837 0.351234 0.396452 76 0 153
0.017252 0.363410 0.537021 76 0 153
0.006273 0.235526 -0.266496 204 51 127
-0.018400 -0.693528 -0.479661 0 255 0
0.086901 -0.801001 -0.419331 0 255 0
0.008221 0.486540 -0.204786 204 51 127
-0.008455 0.518465 -0.206127 204 51 127
-0.010815 -0.137679 -0.361143 0 0 255
-0.113544 0.300343 0.505481 76 0 153
-0.013076 0.490732 -0.007769 153 76 0
0.004641 0.523927 -0.207469 204 51 127
0.008321 -0.768739 -0.470404 0 255 0
-0.109179 0.350402 0.407430 76 0 153
0.081873 -0.774261 -0.468513 0 255 0
0.051990 -0.808154 -0.390754 0 255 0
-0.012892 0.467179 0.451857 76 153 0
0.009749 -0.728439 -0.473552 0 255 0
-0.032770 0.256931 0.300763 76 0 153
0.007829 -0.673001 -0.496034 0 255 0
0.012752 -0.808154 -0.583307 0 255 0
0.038625 0.359955 0.340707 76 0 153
-0.000547 -0.071502 -0.377706 153 0 76
0.125472 0.273194 0.385875 76 0 153
0.062439 0.426557 0.420198 76 153 0
-0.027781 0.286277 0.309861 76 0 153
0.031265 -0.808154 -0.524331 0 255 0
0.013803 -0.264780 -0.386270 204 51 127
0.013717 -0.767411 -0.499562 0 255 0
-0.001042 0.070791 -0.343471 153 0 76
-0.073760 0.250190 0.316032 76 0 153
-0.004049 0.564017 -0.224321 153 0 76
0.093965 0.379141 0.451719 76 0 153
0.073880 0.421463 0.409679 76 0 153
-0.016265 -0.061249 -0.341455 0 0 255
-0.004307 0.529851 -0.236005 153 0 76
0.058471 -0.774261 -0.439071 0 255 0
0.051772 0.439300 0.436476 76 153 0
-0.018157 -0.742341 -0.494647 0 255 0
0.013181 0.452904 0.314911 76 0 153
-0.088759 0.322467 0.352578 76 0 153
-0.016554 -0.472182 -0.434947 0 0 255
-0.017807 -0.675988 -0.480532 0 255 0
0.140829 0.262795 0.479928 76 0 153
-0.066983 -0.796827 -0.397304 0 255 0
-0.055420 -0.783885 -0.389179 0 255 0
-0.002174 0.396587 -0.271792 153 0 76
-0.003353 -0.311978 -0.440769 153 0 76
0.013946 -0.161014 -0.364479 204 51 127
0.032499 -0.786211 -0.594019 0 255 0
-0.001311 -0.283080 -0.434604 153 0 76
0.006825 -0.807374 -0.511145 0 255 0
-0.038504 0.425482 0.359301 76 153 0
-0.004262 -0.217422 -0.414688 153 0 76
0.005774 0.190877 -0.278251 204 51 127
0.074784 0.428310 0.416232 76 153 0
-0.003972 -0.201560 -0.413513 153 0 76
-0.056062 0.339287 0.536356 76 0 153
0.001811 0.287556 -0.295332 153 0 76
0.021528 0.425911 0.398376 76 153 0
0.041776 0.425505 0.393742 76 153 0
0.069602 0.315208 0.340367 76 0 153
0.030143 0.426013 0.399542 76 153 0
0.052111 0.314328 0.551003 76 0 153
0.006281 -0.076908 -0.345221 204 51 127
-0.014645 0.420825 0.356039 76 153 0
0.014034 0.440215 0.480250 76 153 0
-0.047225 0.412026 0.499066 76 0 153
0.072671 -0.774261 -0.532545 0 255 0
0.013132 -0.242081 -0.384711 204 51 127
0.024046 0.427892 0.421027 76 153 0
-0.011654 0.483215 -0.205550 0 0 255
0.128261 0.267680 0.386508 76 0 153
0.019030 0.458657 0.395568 76 153 0
-0.021288 -0.808154 -0.592133 0 255 0
-0.040703 -0.774261 -0.446730 0 255 0
-0.082395 -0.774261 -0.420127 0 255 0
-0.130326 0.281448 0.393778 76 0 153
0.010269 0.387641 -0.228211 204 51 127
0.036360 0.396419 0.352920 76 0 153
-0.073220 0.436411 0.416008 76 153 0
-0.104167 -0.804980 -0.530377 0 255 0
-0.006188 -0.758572 -0.497220 0 255 0
0.006324 -0.468914 -0.438574 204 51 127
0.014016 0.378914 0.529057 76 0 153
0.040090 -0.808154 -0.414295 0 255 0
-0.033205 0.439362 0.386855 76 153 0
0.007949 0.441810 0.479622 76 153 0
-0.103936 -0.801766 -0.443879 0 255 0
0.026500 0.423617 0.502114 76 0 153
-0.008854 0.142923 -0.292042 0 0 255
-0.002768 -0.147650 -0.401791 153 0 76
0.009068 -0.154065 -0.365511 204 51 127
-0.001618 -0.439578 -0.465743 153 0 76
-0.066293 0.404123 0.490494 76 0 153
-0.017531 0.432211 0.470391 76 153 0
-0.014031 -0.665075 -0.491175 0 255 0
0.001674 0.138546 -0.329585 153 0 76
-0.047484 0.342870 0.539112 76 0 153
0.097360 0.342611 0.484704 76 0 153
0.000350 -0.345757 -0.449119 153 0 76
-0.073181 0.289188 0.555817 76 0 153
-0.046540 -0.774261 -0.405001 0 255 0
0.018934 0.260994 0.300569 76 0 153
0.013915 0.413931 -0.226824 204 51 127
-0.003326 0.090435 -0.339553 153 0 76
-0.119402 0.296867 0.386105 76 0 153
-0.003467 0.542657 -0.189188 204 51 127
0.001685 -0.258217 -0.424709 153 0 76
-0.009504 -0.776148 -0.511014 0 255 0
-0.019769 0.516226 -0.212181 0 0 255
-0.061300 0.366414 0.517636 76 0 153
0.006825 -0.806302 -0.501211 0 255 0
-0.003866 0.351454 0.543886 76 0 153
0.006825 -0.784533 -0.531614 0 255 0
0.122749 0.309935 0.458384 76 0 153
0.022722 -0.774261 -0.554920 0 255 0
-0.015387 0.459186 0.238096 153 76 0
-0.018940 -0.774261 -0.536320 0 255 0
0.010330 0.171024 -0.288055 204 51 127
0.126993 0.299311 0.456737 76 0 153
0.006669 -0.276190 -0.387852 204 51 127
0.032850 0.438257 0.387098 76 153 0
-0.051918 0.246857 0.301775 76 0 153
-0.008831 -0.357430 -0.410670 0 0 255
-0.016850 0.208511 -0.276568 0 0 255
-0.003218 0.290961 -0.296426 153 0 76
0.057867 0.308019 0.331631 76 0 153
-0.135329 0.287685 0.413868 76 0 153
-0.109741 0.348690 0.466695 76 0 153
0.047945 0.305126 0.559211 76 0 153
-0.016823 -0.030811 -0.331937 0 0 255
0.035045 0.245752 0.296911 76 0 153
0.057857 -0.808154 -0.486076 0 255 0
-0.032670 -0.808154 -0.474831 0 255 0
-0.000173 -0.126670 -0.391035 153 0 76
0.001767 -0.422701 -0.464693 153 0 76
-0.113569 -0.787476 -0.488745 0 255 0
-0.084288 -0.799064 -0.412440 0 255 0
0.048033 0.432100 0.456574 76 153 0
0.061970 -0.808154 -0.504372 0 255 0
-0.004601 -0.773479 -0.478147 0 255 0
0.006233 0.387032 0.525073 76 0 153
-0.115028 0.309358 0.494418 76 0 153
0.032761 0.437060 0.489222 76 153 0
-0.031346 -0.774261 -0.413242 0 255 0
0.001518 -0.193572 -0.408539 153 0 76
-0.004189 0.280071 -0.297651 153 0 76
-0.004162 0.106584 -0.336677 153 0 76
-0.079555 0.384729 0.381166 76 0 153
0.115784 0.310284 0.395422 76 0 153
0.090399 0.385201 0.454505 76 0 153
-0.001000 0.453349 0.309427 76 0 153
-0.023170 0.413304 0.349728 76 0 153
-0.013720 0.431626 0.354178 76 153 0
-0.011201 -0.790683 -0.487254 0 255 0
-0.012768 0.413895 0.511684 76 0 153
0.143079 0.250980 0.399972 76 0 153
-0.006849 0.526406 -0.199279 204 51 127
0.004855 0.434148 0.346179 76 0 153
-0.071037 0.235378 0.308750 76 0 153
0.016429 0.467461 0.154792 76 0 153
0.001597 -0.102094 -0.389154 153 0 76
0.000375 0.423267 0.368161 76 153 0
-0.010747 0.466844 0.161971 153 76 0
-0.060087 -0.784296 -0.582801 0 255 0
-0.112559 -0.775125 -0.488193 0 255 0
0.000933 -0.661420 -0.484467 153 0 76
0.014711 0.515406 -0.113914 76 0 153
-0.009727 0.105967 -0.296760 0 0 255
0.013640 -0.657365 -0.483217 204 51 127
0.020999 0.400193 0.357460 76 153 0
0.065943 0.417146 0.389566 76 0 153
-0.016347 0.502425 -0.080744 153 76 0
-0.015886 -0.356837 -0.406877 0 0 255
-0.014536 0.515806 -0.113110 153 76 0
-0.014437 0.053487 -0.307872 0 0 255
0.014839 0.490165 -0.000093 76 0 153
0.092221 0.300190 0.352963 76 0 153
0.014546 0.484876 0.076475 76 0 153
-0.015732 0.436076 0.315945 76 0 153
-0.083309 -0.774261 -0.519875 0 255 0
0.012837 -0.755963 -0.499939 0 255 0
-0.003468 -0.655351 -0.488088 153 0 76
-0.009504 -0.774643 -0.591910 0 255 0
0.013920 0.475034 0.426552 76 153 0
0.008453 0.451126 0.260963 76 0 153
-0.045109 0.406476 0.358749 76 0 153
-0.079694 -0.808154 -0.435298 0 255 0
0.008306 -0.765386 -0.491662 0 255 0
0.037218 0.428052 0.378391 76 153 0
-0.103613 0.336960 0.387995 76 0 153
-0.004350 0.159947 -0.326064 153 0 76
0.012765 -0.026127 -0.327999 204 51 127
-0.007878 0.533208 -0.210328 204 51 127
0.063867 0.418646 0.473283 76 0 153
-0.026899 0.431755 0.465183 76 153 0
0.039555 0.313327 0.559729 76 0 153
0.010399 0.072715 -0.311452 204 51 127
0.096426 0.276960 0.544707 76 0 153
-0.080079 0.420985 0.419340 76 0 153
-0.003548 0.133993 -0.329382 153 0 76
0.000217 -0.179230 -0.409316 153 0 76
-0.016784 0.491971 -0.206783 0 0 255
-0.012301 0.505107 -0.052310 153 76 0
-0.011186 0.451823 0.385677 76 153 0
-0.074173 0.384297 0.495361 76 0 153
0.003479 0.320971 0.319895 76 0 153
-0.016627 0.173709 -0.285109 0 0 255
-0.013053 0.292803 -0.259079 0 0 255
-0.007468 -0.680169 -0.500535 0 255 0
-0.015333 -0.774261 -0.527321 0 255 0
-0.017826 0.440689 0.500216 76 153 0
-0.063192 0.372499 0.356508 76 0 153
-0.019145 -0.808154 -0.455239 0 255 0
-0.017516 -0.808154 -0.397381 0 255 0
0.094176 0.375645 0.433041 76 0 153
-0.013317 -0.465398 -0.439547 0 0 255
-0.051875 -0.785719 -0.587102 0 255 0
0.130481 0.283663 0.412054 76 0 153
-0.000426 0.062397 -0.351846 153 0 76
0.015976 0.519092 -0.206691 76 0 153
-0.004296 -0.290034 -0.432330 153 0 76
-0.013720 -0.808154 -0.380968 0 255 0
0.011033 -0.663943 -0.475390 153 0 76
-0.016754 -0.279701 -0.389804 0 0 255
0.006823 0.455142 0.341567 76 0 153
-0.102579 0.300054 0.524905 76 0 153
-0.000294 -0.454526 -0.475600 153 0 76
-0.003742 0.546144 -0.234274 153 0 76
0.007800 -0.343279 -0.402523 204 51 127
-0.010803 0.465156 0.178493 153 76 0
0.006226 0.429371 0.437928 76 153 0
-0.077219 -0.774261 -0.552036 0 255 0
-0.085868 -0.774261 -0.542972 0 255 0
-0.048046 0.445938 0.437635 76 153 0
-0.018378 -0.793624 -0.377242 0 255 0
0.086926 -0.808154 -0.422936 0 255 0
0.008897 0.431879 0.466595 76 153 0
-0.129800 0.301998 0.474269 76 0 153
0.010040 0.512328 -0.198977 76 0 153
-0.014370 -0.416853 -0.419769 0 0 255
-0.002990 0.514688 -0.195566 204 51 127
0.006825 -0.779554 -0.513135 0 255 0
0.065924 0.372710 0.507092 76 0 153
-0.016838 -0.553032 -0.456484 0 0 255
0.074607 0.393456 0.387235 76 0 153
0.084620 0.392418 0.458665 76 0 153
-0.038445 0.259412 0.592713 76 0 153
-0.010981 -0.102177 -0.344936 0 0 255
-0.041281 -0.808154 -0.486223 0 255 0
0.025040 0.402358 0.349221 76 0 153
-0.001051 0.115479 -0.339130 153 0 76
0.088464 -0.774261 -0.456084 0 255 0
0.043191 0.239441 0.298825 76 0 153
0.008255 0.396992 -0.226100 204 51 127
-0.108267 -0.808154 -0.486600 0 255 0
0.071700 0.316664 0.536926 76 0 153
-0.001076 -0.234047 -0.422858 153 0 76
-0.043274 0.322031 0.325376 76 0 153
0.007844 0.429585 0.314058 76 0 153
-0.084867 0.399451 0.462444 76 0 153
0.076237 0.339896 0.354644 76 0 153
-0.061823 0.430265 0.418670 76 153 0
0.006825 -0.771814 -0.503778 0 255 0
-0.065019 -0.774261 -0.408551 0 255 0
0.000933 -0.654257 -0.493622 153 0 76
-0.003807 0.435436 0.369030 76 0 153
-0.002411 -0.065594 -0.376396 153 0 76
0.019420 0.353132 0.361653 76 153 0
-0.030373 -0.774261 -0.588253 0 255 0
0.073626 -0.774261 -0.450797 0 255 0
-0.016610 -0.774261 -0.392068 0 255 0
0.020732 0.247078 0.296136 76 0 153
-0.092120 0.319816 0.524603 76 0 153
0.071982 -0.774261 -0.552510 0 255 0
-0.089062 0.359157 0.378985 76 0 153
0.100304 0.334756 0.387895 76 0 153
0.008731 -0.557144 -0.461479 204 51 127
0.031936 0.313464 0.320160 76 0 153
-0.151162 0.250343 0.464938 76 0 153
0.036182 0.438029 0.469287 76 153 0
0.043367 0.415004 0.363385 76 0 153
0.101309 0.313528 0.375524 76 0 153
0.020696 -0.795308 -0.596914 0 255 0
0.083782 0.374027 0.388471 76 0 153
0.001742 -0.444296 -0.469693 153 0 76
-0.077781 -0.774261 -0.533096 0 255 0
0.033005 0.427477 0.361812 76 153 0
0.008533 0.054252 -0.307671 204 51 127
-0.108159 0.353528 0.434459 76 0 153
-0.008905 -0.547618 -0.453285 0 0 255
-0.008720 -0.006038 -0.325025 0 0 255
0.022076 0.410860 0.359229 76 153 0
0.000086 -0.209393 -0.410929 153 0 76
0.091774 0.355173 0.482923 76 0 153
0.092150 0.345433 0.492280 76 0 153
-0.009530 0.454889 0.354716 76 0 153
0.034580 0.444747 0.462203 76 153 0
-0.110743 0.300592 0.373831 76 0 153
0.006878 -0.010001 -0.329845 204 51 127
-0.075534 -0.808154 -0.505736 0 255 0
0.126239 0.300534 0.470159 76 0 153
0.011131 -0.087611 -0.349574 204 51 127
-0.002236 0.351774 0.423440 76 153 0
0.097387 0.334911 0.492647 76 0 153
-0.100422 0.372264 0.439405 76 0 153
0.021110 0.462945 0.450437 76 153 0
0.014403 0.512081 -0.091140 76 0 153
0.008160 -0.070329 -0.345383 204 51 127
0.128408 0.290079 0.420533 76 0 153
-0.009504 -0.789680 -0.592925 0 255 0
0.013561 0.502566 -0.031513 76 0 153
-0.087202 0.351253 0.370004 76 0 153
0.000172 -0.137711 -0.393783 153 0 76
-0.057699 -0.808154 -0.486084 0 255 0
-0.054565 0.428787 0.431256 76 153 0
0.000962 -0.480044 -0.480883 153 0 76
0.061640 -0.808154 -0.461578 0 255 0
-0.097175 -0.805111 -0.545579 0 255 0
0.000933 -0.668103 -0.492228 153 0 76
-0.066077 0.300556 0.330719 76 0 153
0.001295 -0.268964 -0.429808 153 0 76
0.106745 0.294518 0.371346 76 0 153
-0.003534 0.479358 -0.251088 153 0 76
-0.012895 -0.157947 -0.358102 0 0 255
0.000294 0.473162 -0.252987 153 0 76
0.074131 -0.808154 -0.468092 0 255 0
0.038403 -0.808154 -0.386072 0 255 0
-0.039944 0.425806 0.378956 76 153 0
-0.004406 0.008643 -0.361566 153 0 76
-0.004171 -0.497051 -0.483850 153 0 76
-0.011359 0.026306 -0.322609 0 0 255
0.054332 0.427169 0.412762 76 153 0
0.011123 0.475415 0.418835 76 153 0
0.068866 0.245593 0.314421 76 0 153
0.006874 -0.100761 -0.351445 204 51 127
-0.140115 0.276551 0.438791 76 0 153
-0.093701 0.376269 0.399489 76 0 153
-0.093567 0.387203 0.458757 76 0 153
-0.009504 -0.799119 -0.534728 0 255 0
-0.009504 -0.804864 -0.518870 0 255 0
0.009538 -0.236357 -0.385073 204 51 127
-0.047724 0.443083 0.446788 76 153 0
-0.011414 -0.150731 -0.364752 0 0 255
0.005777 -0.617117 -0.472264 204 51 127
-0.130382 0.285155 0.490345 76 0 153
-0.078082 0.426193 0.443497 76 0 153
-0.138672 0.267361 0.492584 76 0 153
0.006825 -0.781084 -0.504597 0 255 0
-0.086182 -0.808154 -0.523052 0 255 0
0.008288 0.426390 0.403861 76 153 0
-0.094502 0.331385 0.509572 76 0 153
0.058952 0.340949 0.530630 76 0 153
-0.009770 -0.245720 -0.380427 0 0 255
0.016535 0.449956 0.260649 76 0 153
-0.068347 -0.774261 -0.517285 0 255 0
-0.015847 0.248696 0.297688 76 0 153
-0.010952 0.359581 0.332463 76 0 153
-0.015885 0.145414 -0.287322 0 0 255
0.097876 0.284880 0.539025 76 0 153
-0.004037 -0.053685 -0.377946 153 0 76
0.022461 0.293971 0.310852 76 0 153
-0.016847 -0.732494 -0.478217 0 255 0
0.009489 0.340764 0.549036 76 0 153
-0.101510 -0.789907 -0.536791 0 255 0
-0.045932 -0.774261 -0.497383 0 255 0
-0.009030 0.131334 -0.291521 0 0 255
-0.015474 0.481717 0.047277 153 76 0
0.109937 -0.780347 -0.496014 0 255 0
-0.010150 0.435804 0.501757 76 153 0
0.001130 -0.617461 -0.512356 153 0 76
0.026204 0.382095 0.342385 76 0 153
0.007739 0.048281 -0.309384 204 51 127
-0.010996 -0.068807 -0.344916 0 0 255
0.001662 -0.718984 -0.498621 0 255 0
0.011083 -0.808154 -0.379550 0 255 0
-0.077198 0.392796 0.482091 76 0 153
0.019944 -0.808154 -0.381614 0 255 0
-0.016770 0.246716 -0.264860 0 0 255
0.111649 0.332088 0.427399 76 0 153
0.020235 0.450643 0.319868 76 0 153
-0.110914 -0.793316 -0.508911 0 255 0
-0.004238 -0.120225 -0.391239 153 0 76
-0.016013 0.401952 -0.231483 0 0 255
0.012666 -0.007580 -0.323493 204 51 127
-0.109500 0.289128 0.523083 76 0 153
-0.054191 0.262096 0.582273 76 0 153
0.070376 0.434793 0.410982 76 153 0
0.051289 0.374322 0.352561 76 0 153
0.004641 0.519411 -0.195858 204 51 127
-0.016124 -0.365066 -0.413939 0 0 255
0.036440 0.268330 0.585882 76 0 153
-0.000383 0.395935 0.343609 76 0 153
0.062422 0.262313 0.575487 76 0 153
0.001286 0.327331 -0.286989 153 0 76
0.026239 0.327922 0.555202 76 0 153
-0.007690 0.474713 0.441222 76 153 0
-0.014458 -0.089284 -0.349951 0 0 255
-0.099190 -0.774261 -0.468151 0 255 0
-0.149380 0.254515 0.457286 76 0 153
-0.020384 -0.808154 -0.565365 0 255 0
-0.037937 -0.808154 -0.441803 0 255 0
-0.079408 0.401958 0.469623 76 0 153
-0.014852 -0.377916 -0.410944 0 0 255
-0.021578 0.454260 0.302684 76 0 153
-0.068072 0.314517 0.337242 76 0 153
-0.008699 -0.251749 -0.383145 0 0 255
0.011380 0.537768 -0.195259 76 0 153
0.012106 -0.630224 -0.471018 204 51 127
-0.004615 -0.727540 -0.498253 0 255 0
-0.003936 0.380675 0.528691 76 0 153
-0.017268 0.318631 0.319749 76 0 153
0.119457 0.295008 0.489577 76 0 153
-0.003725 0.075788 -0.347632 153 0 76
-0.071812 0.291863 0.330805 76 0 153
-0.020688 0.534566 -0.204100 0 0 255
-0.004255 0.445645 0.325503 76 0 153
-0.144927 0.264750 0.426527 76 0 153
0.080451 -0.774261 -0.516951 0 255 0
0.007325 0.039128 -0.318561 204 51 127
0.040601 -0.774261 -0.537939 0 255 0
0.001513 -0.358133 -0.447953 153 0 76
0.006331 -0.294790 -0.397132 204 51 127
-0.096548 -0.808154 -0.438399 0 255 0
-0.073580 0.430995 0.420158 76 153 0
-0.021743 0.438513 0.299142 76 0 153
-0.018882 0.464976 0.183059 153 76 0
-0.121273 0.322142 0.448771 76 0 153
0.108878 0.315418 0.489717 76 0 153
-0.030163 0.325143 0.322167 76 0 153
-0.042054 0.386418 0.516865 76 0 153
0.039560 0.386666 0.351001 76 0 153
-0.005434 0.414220 0.349511 76 0 153
-0.049341 -0.808154 -0.580618 0 255 0
-0.050760 -0.808154 -0.401349 0 255 0
-0.102463 -0.808154 -0.452391 0 255 0
-0.010816 0.483655 0.065393 153 76 0
-0.009504 -0.799500 -0.545009 0 255 0
-0.014850 0.491463 0.037677 153 76 0
-0.070988 0.426549 0.406184 76 153 0
0.067815 -0.774261 -0.463757 0 255 0
-0.030002 0.452132 0.458463 76 153 0
-0.009504 -0.777855 -0.550796 0 255 0
-0.016688 -0.489119 -0.439103 0 0 255
0.008838 0.493678 0.013509 153 76 0
-0.026961 0.447861 0.466506 76 153 0
0.011589 -0.808154 -0.420676 0 255 0
-0.036999 -0.808154 -0.419173 0 255 0
-0.008769 -0.616041 -0.471425 0 255 0
0.077305 0.379039 0.487318 76 0 153
-0.016106 -0.808154 -0.511072 0 255 0
0.057166 -0.808154 -0.563925 0 255 0
0.006870 -0.756777 -0.495411 0 255 0
-0.010658 -0.106139 -0.353491 0 0 255
0.011191 0.529157 -0.187346 76 0 153
-0.009504 -0.793147 -0.525847 0 255 0
-0.010828 0.193393 -0.282348 0 0 255
0.113716 0.285078 0.511472 76 0 153
0.063029 -0.808154 -0.409409 0 255 0
-0.037888 0.329646 0.552210 76 0 153
-0.013206 -0.325620 -0.397997 0 0 255
0.067187 -0.808154 -0.512270 0 255 0
0.006825 -0.796867 -0.581540 0 255 0
-0.014365 -0.747041 -0.474087 0 255 0
-0.129912 0.253867 0.520563 76 0 153
0.010811 0.464136 0.206407 76 0 153
0.000468 -0.252167 -0.426622 153 0 76
0.012730 -0.475011 -0.440620 204 51 127
-0.080494 0.396618 0.391458 76 0 153
0.064221 0.271854 0.568608 76 0 153
-0.014830 -0.270802 -0.385427 0 0 255
0.049814 0.262036 0.583813 76 0 153
-0.046705 0.407028 0.502265 76 0 153
0.041877 0.305802 0.322511 76 0 153
0.001314 0.438583 0.496520 76 153 0
0.091515 0.325150 0.514631 76 0 153
-0.003523 0.212642 -0.310513 153 0 76
-0.010974 0.486266 0.057022 153 76 0
-0.003876 0.566745 -0.230167 153 0 76
-0.010613 -0.051355 -0.340409 0 0 255
-0.016570 -0.607481 -0.471361 0 255 0
-0.020881 0.426469 0.404764 76 153 0
-0.084727 0.329935 0.353036 76 0 153
-0.004368 -0.020142 -0.369165 153 0 76
-0.010732 0.509910 -0.106643 153 76 0
0.030381 -0.808154 -0.396676 0 255 0
-0.047189 -0.808154 -0.480217 0 255 0
-0.025013 -0.774261 -0.506908 0 255 0
-0.132896 0.258696 0.510815 76 0 153
-0.133458 0.292673 0.443199 76 0 153
-0.131074 0.298655 0.457563 76 0 153
0.018069 0.436198 0.483661 76 153 0
-0.002186 -0.429918 -0.469778 153 0 76
0.016309 0.439988 0.311953 76 0 153
-0.008813 0.496289 -0.207124 0 0 255
0.016536 0.454214 0.239018 76 0 153
0.031203 -0.774261 -0.522335 0 255 0
-0.146574 0.254363 0.490997 76 0 153
-0.002076 -0.241016 -0.418316 153 0 76
0.075242 -0.775296 -0.567979 0 255 0
0.001948 0.409704 0.513413 76 0 153
-0.024918 -0.808154 -0.410560 0 255 0
-0.060581 0.305311 0.329271 76 0 153
0.108053 -0.794071 -0.510328 0 255 0
0.098162 -0.788537 -0.436395 0 255 0
0.001715 0.294417 -0.292539 153 0 76
0.000884 0.430926 0.316381 76 0 153
0.006938 0.247695 -0.268559 204 51 127
0.009883 0.430824 0.454546 76 153 0
-0.009504 -0.773602 -0.498226 0 255 0
0.032073 -0.808154 -0.480555 0 255 0
-0.078827 0.395282 0.476911 76 0 153
-0.115951 0.278802 0.366964 76 0 153
0.066767 0.435471 0.397219 76 153 0
-0.110340 -0.806025 -0.461544 0 255 0
0.010161 0.509928 -0.123796 76 0 153
-0.017624 0.286214 0.578239 76 0 153
-0.050513 0.443603 0.423614 76 153 0
0.070658 0.262575 0.570000 76 0 153
0.098670 0.290645 0.356526 76 0 153
0.011483 -0.045195 -0.331359 204 51 127
-0.085773 -0.774261 -0.466749 0 255 0
0.142095 0.260225 0.442836 76 0 153
-0.137853 0.254147 0.386908 76 0 153
0.045725 -0.808154 -0.504014 0 255 0
-0.003619 -0.517248 -0.489765 153 0 76
-0.074449 0.438711 0.433480 76 153 0
0.010673 -0.670016 -0.486486 153 0 76
0.133566 0.280163 0.476539 76 0 153
0.095337 -0.808154 -0.481951 0 255 0
-0.017708 0.438027 0.358716 76 0 153
-0.120596 0.279019 0.513201 76 0 153
-0.067372 -0.774261 -0.443270 0 255 0
0.069760 0.275718 0.562709 76 0 153
0.015136 -0.783470 -0.597646 0 255 0
-0.008790 0.371540 -0.234618 0 0 255
0.011600 -0.738331 -0.474470 0 255 0
0.064592 -0.798504 -0.397521 0 255 0
-0.103267 0.280315 0.542249 76 0 153
0.006648 0.447475 0.474031 76 153 0
-0.067718 0.392113 0.499081 76 0 153
-0.009248 -0.558875 -0.459963 0 0 255
0.049088 0.429972 0.444802 76 153 0
0.113595 0.277797 0.519279 76 0 153
0.075263 -0.774261 -0.497760 0 255 0
0.000272 -0.808154 -0.417328 0 255 0
-0.004170 0.199769 -0.316930 153 0 76
-0.009504 -0.788513 -0.536364 0 255 0
0.000495 -0.276412 -0.432412 153 0 76
0.008242 -0.734762 -0.485005 0 255 0
-0.001599 0.315932 -0.284757 153 0 76
-0.008842 0.364874 -0.236145 0 0 255
0.005809 0.175748 -0.282442 204 51 127
-0.148393 0.257033 0.465866 76 0 153
-0.075384 0.298800 0.335580 76 0 153
0.049938 0.439338 0.444476 76 153 0
-0.002410 -0.484613 -0.482746 153 0 76
0.074892 -0.802945 -0.569388 0 255 0
0.000247 0.082409 -0.341077 153 0 76
-0.098865 -0.799109 -0.543175 0 255 0
0.056547 0.313825 0.333077 76 0 153
0.073860 0.361456 0.508698 76 0 153
-0.004232 -0.059977 -0.376760 153 0 76
0.000719 0.435955 0.303019 76 0 153
0.006825 -0.777099 -0.580231 0 255 0
-0.003627 -0.323853 -0.443432 153 0 76
0.031997 -0.808154 -0.538995 0 255 0
0.103460 0.351431 0.423336 76 0 153
0.077778 0.303234 0.541038 76 0 153
-0.076484 0.385111 0.376129 76 0 153
0.012966 0.424615 0.383564 76 153 0
-0.018186 0.447963 0.311418 76 0 153
-0.020317 0.458512 0.458350 76 153 0
0.005673 0.425365 0.392144 76 153 0
-0.008844 -0.042271 -0.335920 0 0 255
0.014933 0.481735 0.052690 76 0 153
0.063181 0.440960 0.458891 76 153 0
0.006530 0.456671 0.360213 76 0 153
-0.071978 -0.806971 -0.401136 0 255 0
0.041907 0.419761 0.494452 76 0 153
-0.025392 0.437260 0.486069 76 153 0
-0.026324 -0.774261 -0.484602 0 255 0
-0.009382 0.452164 0.326864 76 0 153
0.133230 0.276428 0.408760 76 0 153
0.046001 0.441534 0.408524 76 153 0
0.015860 0.406305 0.514754 76 0 153
-0.056370 0.427148 0.391632 76 153 0
-0.035586 0.432260 0.484033 76 153 0
0.009449 0.435999 0.489901 76 153 0
-0.015952 -0.622658 -0.475525 0 255 0
-0.018783 0.508860 -0.099746 153 76 0
0.070064 -0.808154 -0.433308 0 255 0
-0.015765 0.475060 0.427793 76 153 0
0.005828 -0.571241 -0.460538 204 51 127
0.008724 0.522096 -0.200040 76 0 153
-0.071954 0.406210 0.383666 76 0 153
-0.050487 0.397684 0.505562 76 0 153
-0.010546 -0.224636 -0.374516 0 0 255
0.037264 -0.808154 -0.409125 0 255 0
0.110733 -0.797017 -0.489970 0 255 0
0.071697 -0.774261 -0.538352 0 255 0
0.060197 -0.808154 -0.455871 0 255 0
-0.010969 0.511707 -0.124090 153 76 0
-0.033609 0.267888 0.588259 76 0 153
-0.099598 0.373986 0.423121 76 0 153
0.135504 0.279510 0.462853 76 0 153
-0.059858 -0.808154 -0.432536 0 255 0
0.006229 0.439204 0.486051 76 153 0
0.032878 0.347510 0.333152 76 0 153
-0.009629 -0.424453 -0.428316 0 0 255
0.024816 -0.774261 -0.455620 0 255 0
0.076421 -0.774261 -0.409626 0 255 0
-0.048613 -0.808154 -0.562028 0 255 0
0.009180 -0.594274 -0.470292 204 51 127
-0.083562 0.290529 0.549183 76 0 153
0.002650 0.233781 0.292464 76 0 153
-0.008379 -0.774261 -0.421862 0 255 0
-0.033481 0.427044 0.411332 76 153 0
0.016752 -0.771869 -0.494758 0 255 0
0.096610 0.354149 0.474232 76 0 153
-0.066991 -0.774261 -0.503396 0 255 0
0.015481 0.463843 0.166670 76 0 153
-0.082969 0.381736 0.482403 76 0 153
0.010711 0.467127 0.138557 76 0 153
-0.053700 0.357396 0.345093 76 0 153
0.075388 0.437497 0.421560 76 153 0
0.033083 -0.808154 -0.518439 0 255 0
0.014060 0.490789 0.041315 76 0 153
0.012593 0.492719 -0.020730 76 0 153
-0.108398 -0.804792 -0.454650 0 255 0
0.009209 -0.559731 -0.453784 204 51 127
-0.024769 0.437451 0.498391 76 153 0
0.005786 0.416959 -0.224651 204 51 127
-0.106624 0.268209 0.343096 76 0 153
