ply
format ascii 1.0
element vertex 622
property float x
property float y
property float z
property float nx
property float ny
property float nz
property uchar red
property uchar green
property uchar blue
property float opacity
end_header
-0.130794 0.247494 0.369840 -0.795348 0.364334 -0.484440 62 62 62 0.800000
0.016551 0.468682 0.160753 0.965380 0.257517 0.041549 170 165 161 1.000000
-0.016617 0.501797 -0.075334 0.434752 0.889055 0.143432 170 165 161 1.000000
-0.010963 0.460295 -0.211046 0.424875 -0.209631 0.880645 170 165 161 1.000000
-0.008353 -0.746479 -0.496192 -0.774662 -0.008902 -0.632313 170 165 161 1.000000
0.005809 -0.151764 -0.359222 -0.937510 -0.080580 0.338500 170 165 161 1.000000
-0.078622 -0.808154 -0.473312 0.000000 -1.000000 -0.000000 255 247 247 1.000000
-0.010592 -0.387448 -0.420393 0.544179 0.194279 -0.816165 170 165 161 1.000000
-0.004358 0.427498 0.504351 0.015316 -0.483032 -0.875469 52 52 52 0.800000
-0.071310 -0.808154 -0.495966 0.000000 -1.000000 -0.000000 255 247 247 1.000000
-0.059826 0.360257 0.522046 0.535928 -0.465493 -0.704342 59 59 59 0.800000
0.076295 0.379511 0.488866 0.713126 0.448116 0.539114 77 77 77 0.800000
0.060349 -0.774261 -0.565797 -0.290804 -0.882533 0.369551 255 255 255 1.000000
-0.000685 -0.334641 -0.446955 0.198349 0.228327 -0.953165 170 165 161 1.000000
0.010229 0.443636 0.375799 0.934031 -0.353981 0.047782 170 165 161 1.000000
-0.040980 -0.808154 -0.468177 0.000000 1.000000 0.000000 255 255 255 1.000000
-0.076555 -0.791150 -0.404649 -0.659200 0.207670 0.722723 255 247 247 1.000000
0.073080 0.426683 0.407241 -0.968939 0.022006 0.246319 170 165 161 1.000000
-0.048401 0.330000 0.546074 -0.412518 0.474706 0.777485 35 35 35 0.800000
0.076081 0.402840 0.395621 0.841310 0.368528 -0.395455 40 40 40 0.800000
0.064541 0.421687 0.468765 -0.767574 -0.445962 -0.460378 60 60 60 0.800000
0.012579 0.510279 -0.129569 0.029119 -0.986816 -0.159205 170 165 161 1.000000
-0.004421 0.437785 0.490465 0.105819 -0.088484 -0.990441 170 165 161 1.000000
-0.044829 0.396947 0.354940 -0.480083 0.335900 -0.810365 30 30 30 0.800000
-0.041834 0.433492 0.375058 0.000000 0.996033 -0.088983 170 165 161 1.000000
0.006825 -0.786469 -0.498226 -1.000000 0.000000 0.000000 255 247 247 1.000000
-0.008796 0.426173 -0.223466 0.997727 0.015601 -0.065552 170 165 161 1.000000
-0.025907 0.359034 0.540619 -0.187563 0.472713 0.861024 17 17 17 0.800000
-0.044203 -0.808154 -0.477024 0.000000 -1.000000 -0.000000 255 247 247 1.000000
0.120017 0.276610 0.507558 0.791902 0.443387 0.419880 27 27 27 0.800000
-0.109482 0.350329 0.433807 -0.910710 0.410307 0.047493 30 30 30 0.800000
-0.043316 0.444224 0.403592 0.662068 -0.635313 0.397547 17 17 17 0.800000
0.050346 0.361242 0.347267 -0.537145 -0.336113 0.773630 30 30 30 0.800000
-0.012656 0.492324 -0.015788 -0.507579 0.850606 0.137232 170 165 161 1.000000
-0.000727 0.452826 0.308520 0.000000 -0.866033 0.499987 170 165 161 1.000000
-0.050007 -0.808154 -0.543075 0.000000 1.000000 0.000000 255 255 255 1.000000
0.108008 -0.789010 -0.464145 -0.951508 -0.233779 -0.199950 255 255 255 1.000000
-0.016556 -0.561402 -0.460180 -0.898663 0.101578 -0.426715 170 165 161 1.000000
0.087841 0.331374 0.515577 -0.681526 -0.447589 -0.578953 32 32 32 0.800000
-0.008085 0.461733 0.340822 0.760354 -0.057796 -0.646932 170 165 161 1.000000
-0.052458 0.433141 0.465690 0.789833 -0.054576 -0.610890 170 165 161 1.000000
-0.013403 0.446277 0.266670 0.320627 -0.935114 -0.150864 170 165 161 1.000000
-0.013957 -0.774261 -0.446966 0.000000 -0.984736 -0.174055 255 255 255 1.000000
0.011383 0.484320 0.082346 -0.254928 0.954616 0.154010 170 165 161 1.000000
0.069025 -0.808154 -0.453698 0.000000 1.000000 0.000000 255 255 255 1.000000
-0.027119 0.342070 0.549479 -0.181495 0.473327 0.861987 31 31 31 0.800000
-0.080630 0.383695 0.382273 0.747054 -0.355103 0.561971 43 43 43 0.800000
0.014599 0.335706 0.551510 -0.161964 -0.478558 -0.862989 78 78 78 0.800000
0.055685 -0.799143 -0.584127 -0.504996 -0.109254 0.856179 255 255 255 1.000000
0.076482 0.419766 0.438834 -0.904011 -0.410503 -0.119380 22 22 22 0.800000
0.008160 -0.676940 -0.477083 0.001612 0.568392 0.822757 170 165 161 1.000000
0.011999 0.503572 -0.087792 0.114724 0.980716 0.158221 170 165 161 1.000000
-0.084005 -0.808154 -0.512783 0.000000 -1.000000 -0.000000 255 247 247 1.000000
0.096909 0.326784 0.502053 -0.741768 -0.447529 -0.499497 32 32 32 0.800000
0.009046 -0.774261 -0.460514 0.013625 0.998613 0.050847 255 247 247 1.000000
-0.100857 0.371291 0.444058 -0.900192 0.414338 0.134080 20 20 20 0.800000
0.012179 -0.774261 -0.571855 0.057786 0.947371 -0.314880 255 247 247 1.000000
-0.057401 -0.808154 -0.526269 0.000000 -1.000000 -0.000000 255 247 247 1.000000
-0.094521 -0.801692 -0.425776 -0.830984 0.078490 0.550731 255 247 247 1.000000
-0.014405 0.054753 -0.307542 -0.374716 -0.214696 0.901938 170 165 161 1.000000
0.004034 0.351774 0.435251 0.000000 1.000000 0.000000 170 165 161 1.000000
0.070416 0.435746 0.400291 0.000000 -0.996033 0.088983 170 165 161 1.000000
0.064265 -0.774261 -0.521918 0.325815 0.929766 -0.171404 255 247 247 1.000000
-0.062723 0.431623 0.386762 0.845432 0.047524 0.531964 170 165 161 1.000000
0.008141 0.389953 0.523494 0.164825 0.478359 0.862557 19 19 19 0.800000
0.062664 0.432558 0.468787 -0.829983 -0.049633 -0.555576 170 165 161 1.000000
-0.010710 0.488354 0.024715 0.967315 -0.250340 -0.040391 170 165 161 1.000000
0.125859 0.268523 0.383405 -0.825968 -0.367405 0.427541 20 20 20 0.800000
0.026818 0.467403 0.426008 0.614727 0.788735 -0.002782 48 48 48 0.800000
0.094517 -0.808154 -0.521722 0.000000 1.000000 0.000000 255 255 255 1.000000
-0.102389 0.290832 0.533900 0.660447 -0.451466 -0.599990 23 23 23 0.800000
0.011330 -0.774261 -0.410437 0.051806 0.941062 0.334243 255 247 247 1.000000
0.000933 0.548718 -0.216207 1.000000 0.000000 0.000000 170 165 161 1.000000
0.001104 -0.707699 -0.470696 -0.144484 -0.041810 -0.988623 255 255 255 1.000000
-0.000050 0.492193 0.010508 -0.000001 0.495076 -0.868849 170 165 161 1.000000
-0.016472 0.477545 0.074181 0.394712 0.907076 0.146339 170 165 161 1.000000
0.027024 0.432417 0.377793 -0.388944 -0.575364 0.719499 67 67 67 0.800000
0.003652 -0.757651 -0.497334 -0.561177 0.006950 0.827667 170 165 161 1.000000
-0.008990 -0.751783 -0.481276 0.780452 0.000000 -0.625215 255 247 247 1.000000
-0.073159 0.348010 0.521643 0.588896 -0.458044 -0.665881 27 27 27 0.800000
-0.000939 0.145952 -0.325498 -0.117965 0.231330 -0.965697 170 165 161 1.000000
-0.042812 0.431766 0.465307 0.000000 -0.996195 0.087156 170 165 161 1.000000
0.049487 0.320242 0.331766 0.464999 0.334833 -0.819551 28 28 28 0.800000
-0.003836 0.411712 -0.266913 0.807587 -0.137385 0.573523 170 165 161 1.000000
-0.069910 -0.808154 -0.511740 0.000000 -1.000000 -0.000000 255 247 247 1.000000
-0.003538 -0.774261 -0.407226 0.000000 -0.936062 -0.351836 255 255 255 1.000000
0.105040 0.346139 0.414352 -0.908112 -0.392626 0.145524 29 29 29 0.800000
0.012359 0.179836 -0.278600 -0.622980 0.181141 -0.760975 170 165 161 1.000000
0.006675 -0.534798 -0.449405 -0.789403 -0.142158 0.597189 170 165 161 1.000000
0.042043 0.292589 0.317744 0.372034 0.329929 -0.867605 64 64 64 0.800000
0.013804 0.011552 -0.320535 -0.950029 0.072285 -0.303678 170 165 161 1.000000
-0.009506 -0.646201 -0.480864 -0.817072 -0.133508 0.560864 170 165 161 1.000000
-0.120802 0.277883 0.374691 0.790962 -0.363574 0.492131 31 31 31 0.800000
-0.111402 0.308664 0.501404 0.764857 -0.447240 -0.463648 21 21 21 0.800000
0.097183 0.281974 0.348585 0.674344 0.343361 -0.653730 20 20 20 0.800000
-0.011281 -0.285746 -0.396818 0.353285 0.216636 -0.910087 170 165 161 1.000000
-0.014196 -0.324442 -0.397660 0.320918 0.219320 -0.921363 170 165 161 1.000000
-0.048739 -0.774261 -0.494554 0.245294 -0.968743 0.036985 255 255 255 1.000000
0.044681 0.391994 0.509289 0.510511 0.469558 0.720343 28 28 28 0.800000
0.001446 -0.360442 -0.451380 -0.896446 -0.103235 0.430961 170 165 161 1.000000
-0.007831 0.420995 0.357941 0.000000 -0.996033 0.088983 170 165 161 1.000000
0.005302 0.421644 0.365201 0.000000 0.996033 -0.088983 170 165 161 1.000000
-0.130854 0.298426 0.410805 -0.902027 0.381289 -0.202398 28 28 28 0.800000
-0.016977 0.448020 0.356144 -0.975807 0.215525 -0.036749 170 165 161 1.000000
-0.093746 0.314895 0.526386 -0.649918 0.451188 0.611585 32 32 32 0.800000
0.018478 0.344695 0.546716 0.191436 0.476309 0.858186 47 47 47 0.800000
0.061454 -0.808154 -0.513689 0.000000 -1.000000 -0.000000 255 247 247 1.000000
-0.131288 0.297890 0.442243 -0.911904 0.409208 0.031297 47 47 47 0.800000
-0.051215 0.375703 0.350614 -0.525933 0.337904 -0.780523 31 31 31 0.800000
0.000561 -0.756843 -0.477767 0.193202 -0.000000 0.981159 255 255 255 1.000000
-0.009504 -0.731023 -0.503244 1.000000 0.000000 0.000000 255 247 247 1.000000
-0.006849 0.518274 -0.194989 1.000000 0.000000 0.000000 170 165 161 1.000000
0.057984 0.367265 0.515493 -0.580190 -0.462435 -0.670473 21 21 21 0.800000
0.007306 0.017769 -0.317146 -0.624970 -0.180777 0.759429 170 165 161 1.000000
-0.145121 0.251607 0.496124 0.856606 -0.426193 -0.290835 6 6 6 0.800000
0.073749 0.312048 0.341360 -0.586889 -0.335506 0.736883 29 29 29 0.800000
0.021202 0.437446 0.486633 -0.343499 -0.083569 -0.935427 170 165 161 1.000000
0.135686 0.270001 0.406061 -0.897196 -0.382136 0.221386 36 36 36 0.800000
-0.008856 0.493960 -0.208546 -0.941900 -0.077780 0.326764 170 165 161 1.000000
0.099472 0.345733 0.477201 -0.807374 -0.441079 -0.391913 20 20 20 0.800000
-0.097370 -0.774261 -0.518531 -0.451515 0.880181 -0.146338 255 247 247 1.000000
-0.017240 -0.719558 -0.494410 0.912578 -0.041804 0.406759 255 255 255 1.000000
0.007255 0.439436 0.489811 0.154323 0.087917 0.984101 170 165 161 1.000000
0.103782 -0.808154 -0.492110 0.000000 1.000000 0.000000 255 255 255 1.000000
-0.068677 0.370602 0.511041 0.601365 -0.455936 -0.656112 29 29 29 0.800000
0.013882 -0.545912 -0.456174 -0.935600 -0.081762 0.343465 170 165 161 1.000000
0.012772 0.486511 0.017685 -0.076650 0.984330 0.158804 170 165 161 1.000000
0.096080 -0.784163 -0.543444 0.829489 0.290259 -0.477176 255 247 247 1.000000
0.054491 -0.808154 -0.487495 0.000000 1.000000 0.000000 255 255 255 1.000000
-0.005849 -0.691473 -0.497503 -0.581047 0.000154 -0.813870 170 165 161 1.000000
0.073646 -0.784641 -0.404469 0.640506 0.286042 0.712693 255 247 247 1.000000
0.011575 -0.310516 -0.402610 0.400967 0.212141 -0.891191 170 165 161 1.000000
0.058951 0.352970 0.523429 -0.559517 -0.464956 -0.686117 18 18 18 0.800000
0.006207 -0.808154 -0.392319 0.000000 -1.000000 -0.000000 255 247 247 1.000000
-0.027958 -0.802138 -0.596310 0.243021 -0.072639 0.967297 255 255 255 1.000000
0.010819 -0.553872 -0.452298 -0.229917 0.225366 -0.946757 170 165 161 1.000000
0.015630 -0.717062 -0.490872 -0.979188 -0.041707 0.198626 255 255 255 1.000000
0.005204 -0.775592 -0.376481 -0.031606 -0.561571 -0.826825 255 255 255 1.000000
-0.014037 -0.707663 -0.476218 0.749626 -0.041712 -0.660546 255 255 255 1.000000
0.027482 0.451034 0.394715 -0.501214 -0.640687 0.581640 18 18 18 0.800000
-0.003923 0.317571 0.561509 -0.036548 -0.483307 -0.874687 61 61 61 0.800000
0.020189 0.429757 0.373127 0.289920 0.560201 -0.775965 41 41 41 0.800000
0.007640 -0.044042 -0.331476 -0.528369 -0.196608 0.825937 170 165 161 1.000000
-0.010691 0.483831 0.050797 0.946200 -0.319451 -0.051541 170 165 161 1.000000
-0.079345 -0.774261 -0.465319 -0.382379 0.917641 0.108271 255 247 247 1.000000
-0.013458 0.515851 -0.113009 -0.310520 -0.938433 -0.151398 170 165 161 1.000000
0.090520 0.386040 0.442252 0.903813 0.410521 0.120808 23 23 23 0.800000
0.016414 0.457296 0.216054 -0.952607 0.300320 0.048449 170 165 161 1.000000
0.026952 0.463930 0.410684 -0.608747 -0.718910 0.335553 31 31 31 0.800000
-0.110923 -0.801778 -0.508842 -0.978653 0.077473 -0.190357 255 247 247 1.000000
-0.101051 0.315748 0.512826 0.707518 -0.451296 -0.543829 24 24 24 0.800000
0.076139 -0.798827 -0.406381 0.686286 0.113299 0.718453 255 247 247 1.000000
0.107173 -0.776923 -0.516664 -0.895771 -0.373096 0.241647 255 255 255 1.000000
0.009740 -0.677371 -0.497246 -1.000000 0.000000 0.000000 170 165 161 1.000000
-0.129418 0.302625 0.456213 -0.902408 0.413889 0.119817 13 13 13 0.800000
0.094971 0.340254 0.491970 0.759523 0.446569 0.472970 69 69 69 0.800000
0.087588 -0.808154 -0.498096 0.000000 -1.000000 -0.000000 255 247 247 1.000000
-0.147028 0.260435 0.472756 0.895002 -0.414994 -0.163557 68 68 68 0.800000
0.017987 -0.808154 -0.526302 0.000000 -1.000000 -0.000000 255 247 247 1.000000
-0.035081 -0.774261 -0.465682 0.176246 -0.977784 -0.113471 255 255 255 1.000000
0.033085 -0.774261 -0.465007 -0.179603 -0.976772 -0.116872 255 255 255 1.000000
-0.009481 0.255952 -0.261339 0.820758 -0.132293 0.555747 170 165 161 1.000000
-0.113604 0.281581 0.523006 -0.723475 0.450644 0.522976 24 24 24 0.800000
-0.018814 0.502747 -0.058100 0.999573 0.028847 0.004651 170 165 161 1.000000
0.013821 0.101783 -0.299393 -0.971170 0.055201 -0.231908 170 165 161 1.000000
-0.082576 -0.808154 -0.418366 0.000000 -1.000000 -0.000000 255 247 247 1.000000
-0.027568 0.428735 0.430662 0.000000 0.996195 -0.087156 170 165 161 1.000000
-0.017261 0.430839 0.454713 0.000000 -0.996195 0.087156 170 165 161 1.000000
0.022430 0.321918 0.558441 0.197451 0.475795 0.857107 25 25 25 0.800000
0.033507 0.430292 0.448457 0.000000 0.996195 -0.087156 170 165 161 1.000000
0.011999 0.435526 0.374472 0.184413 0.579957 -0.793499 29 29 29 0.800000
0.011845 0.367444 0.334289 0.111463 0.320602 -0.940633 82 82 82 0.800000
-0.009498 -0.256301 -0.388168 0.805883 0.137104 -0.575981 170 165 161 1.000000
0.005708 0.424801 0.385691 0.000000 0.996195 -0.087156 170 165 161 1.000000
0.089727 -0.808154 -0.424509 0.000000 1.000000 0.000000 255 255 255 1.000000
0.019157 0.456696 0.459910 0.356939 0.742325 0.567052 21 21 21 0.800000
-0.009439 0.466678 0.398322 -0.187998 0.764535 -0.616557 29 29 29 0.800000
-0.008693 -0.768842 -0.480887 -0.748380 -0.000000 0.663270 255 255 255 1.000000
-0.083742 -0.808154 -0.549422 0.000000 1.000000 0.000000 255 255 255 1.000000
0.007742 -0.751264 -0.491102 0.926201 0.000000 -0.377030 255 255 255 1.000000
0.007589 0.171296 -0.287343 0.557789 -0.192197 0.807423 170 165 161 1.000000
0.013263 -0.522608 -0.451339 -0.838512 -0.126181 0.530072 170 165 161 1.000000
-0.022536 0.436922 0.325927 0.003702 0.434168 -0.900824 170 165 161 1.000000
-0.050931 -0.808154 -0.574437 0.000000 1.000000 0.000000 255 255 255 1.000000
-0.084913 0.390413 0.394585 -0.830976 0.369747 -0.415651 25 25 25 0.800000
-0.019689 -0.669241 -0.481677 0.996419 -0.084408 -0.004873 170 165 161 1.000000
-0.043759 0.449435 0.440565 0.684066 -0.697027 -0.214960 25 25 25 0.800000
-0.017459 0.465918 0.151791 -0.662398 -0.739589 -0.119318 170 165 161 1.000000
0.034710 0.440758 0.479698 0.534760 0.075191 0.841652 170 165 161 1.000000
-0.050876 0.286653 0.316369 -0.389747 0.329381 -0.860003 69 69 69 0.800000
0.009210 -0.564771 -0.463268 -0.156564 0.228714 -0.960821 170 165 161 1.000000
0.024234 0.449919 0.464407 0.408198 0.721791 0.558921 24 24 24 0.800000
0.007878 -0.475067 -0.433805 -0.459214 -0.205711 0.864179 170 165 161 1.000000
0.083252 0.272899 0.555666 -0.551387 -0.465850 -0.692066 24 24 24 0.800000
-0.026310 0.373192 0.533268 0.208617 -0.470437 -0.857420 22 22 22 0.800000
-0.010176 -0.774261 -0.580772 0.042402 -0.945765 0.322073 255 255 255 1.000000
0.098171 0.287212 0.537437 -0.657411 -0.449523 -0.604764 15 15 15 0.800000
0.010845 0.516566 -0.118392 0.378891 -0.913628 -0.147396 170 165 161 1.000000
0.102763 0.350628 0.407649 -0.896235 -0.381319 0.226622 78 78 78 0.800000
0.133572 0.266355 0.490869 0.852721 0.430183 0.296328 22 22 22 0.800000
0.072351 0.439415 0.446555 0.960309 0.024821 0.277832 170 165 161 1.000000
-0.028489 -0.774261 -0.447863 -0.120987 0.972268 0.200144 255 247 247 1.000000
-0.125470 0.312086 0.452579 0.903774 -0.413543 -0.110341 35 35 35 0.800000
-0.100128 -0.774261 -0.534588 0.455536 -0.863224 0.217557 255 255 255 1.000000
-0.011203 -0.726617 -0.485535 -0.965553 -0.164430 0.201667 170 165 161 1.000000
0.039971 0.318126 0.326046 0.396502 0.331547 -0.856074 32 32 32 0.800000
-0.001330 0.449398 0.473131 -0.005978 0.727367 0.686222 23 23 23 0.800000
0.001571 0.216675 -0.312852 -0.935390 -0.082377 0.343889 170 165 161 1.000000
0.011798 -0.284860 -0.396427 0.449947 0.206806 -0.868780 170 165 161 1.000000
0.036907 0.359136 0.534002 -0.360636 -0.473369 -0.803656 11 11 11 0.800000
0.022449 -0.808154 -0.416435 0.000000 -1.000000 -0.000000 255 247 247 1.000000
0.138204 0.270095 0.445160 0.913551 0.406602 0.009927 45 45 45 0.800000
0.004042 0.477194 0.429271 0.112057 0.991151 0.071148 10 10 10 0.800000
-0.057118 0.435127 0.440716 0.759946 -0.633376 -0.146004 3 3 3 0.800000
-0.030505 0.459530 0.405343 0.596744 -0.676499 0.431562 29 29 29 0.800000
0.090326 0.384483 0.429534 0.913000 0.407319 0.022848 35 35 35 0.800000
-0.099915 0.282412 0.343895 -0.660225 0.337555 -0.670939 34 34 34 0.800000
-0.011777 0.161703 -0.290360 0.243586 0.224594 -0.943517 170 165 161 1.000000
-0.084679 -0.808154 -0.561201 0.000000 1.000000 0.000000 255 255 255 1.000000
0.015687 -0.738049 -0.493689 -0.934862 -0.041798 0.352541 255 255 255 1.000000
-0.027475 -0.808154 -0.574374 0.000000 1.000000 0.000000 255 255 255 1.000000
0.010878 0.188233 -0.283927 -0.250141 -0.224209 0.941892 170 165 161 1.000000
0.013959 0.070927 -0.309217 0.946791 0.074534 -0.313101 170 165 161 1.000000
0.005735 0.429079 0.434588 0.000000 -0.996195 0.087156 170 165 161 1.000000
0.079126 -0.808154 -0.510634 0.000000 1.000000 0.000000 255 255 255 1.000000
0.037022 0.441004 0.464903 0.533355 0.686856 0.493722 73 73 73 0.800000
0.008161 -0.540261 -0.457246 0.400051 -0.212231 0.891581 170 165 161 1.000000
0.096254 -0.774261 -0.516612 0.457904 0.878377 -0.137035 255 247 247 1.000000
-0.013431 -0.774261 -0.562808 -0.036749 0.961847 -0.271110 255 247 247 1.000000
0.056546 0.272252 0.573336 -0.384408 -0.473691 -0.792368 4 4 4 0.800000
0.000716 0.283958 0.308318 -0.017481 0.324026 -0.945887 32 32 32 0.800000
-0.009522 0.110081 -0.300978 -0.801047 -0.138616 0.582331 170 165 161 1.000000
0.004641 0.529189 -0.203467 -1.000000 0.000000 0.000000 170 165 161 1.000000
-0.042916 0.442025 0.458013 -0.602998 0.686579 0.406204 56 56 56 0.800000
0.011612 0.503002 -0.033537 -0.204111 0.966451 0.155919 170 165 161 1.000000
-0.014860 -0.297275 -0.391756 -0.500590 -0.200465 0.842154 170 165 161 1.000000
-0.015194 -0.578417 -0.465795 0.579349 -0.188750 0.792924 170 165 161 1.000000
0.082043 -0.808154 -0.551164 0.000000 -1.000000 -0.000000 255 247 247 1.000000
-0.013898 0.340851 0.326650 0.146596 -0.322033 0.935310 32 32 32 0.800000
-0.014257 0.450274 0.399700 0.999686 -0.014977 0.020080 170 165 161 1.000000
-0.098295 0.352167 0.389874 -0.804102 0.365795 -0.468630 22 22 22 0.800000
-0.012786 0.382208 -0.229530 -0.004168 0.231568 -0.972810 170 165 161 1.000000
0.010284 -0.132376 -0.360279 -0.106849 -0.230245 0.967249 170 165 161 1.000000
0.045353 0.284345 0.316437 -0.377853 -0.330334 0.864932 31 31 31 0.800000
-0.070244 0.424249 0.393852 0.824336 -0.368854 0.429437 22 22 22 0.800000
-0.012179 0.088714 -0.299428 0.154373 -0.228795 0.961157 170 165 161 1.000000
-0.029168 0.317695 0.562219 0.176283 -0.473839 -0.862786 56 56 56 0.800000
-0.124104 0.311300 0.404765 -0.885594 0.373871 -0.275580 28 28 28 0.800000
-0.016651 -0.193954 -0.372603 0.912587 -0.094688 0.397767 170 165 161 1.000000
-0.002645 0.408452 0.347615 -0.016224 0.324019 -0.945912 32 32 32 0.800000
-0.009504 -0.787584 -0.551300 1.000000 0.000000 0.000000 255 247 247 1.000000
0.093637 -0.808154 -0.454499 0.000000 -1.000000 -0.000000 255 247 247 1.000000
-0.010761 0.340521 0.549783 -0.012794 -0.483343 -0.875338 23 23 23 0.800000
0.002698 0.400206 0.518329 -0.104356 -0.481699 -0.870101 22 22 22 0.800000
-0.000663 0.397806 -0.271500 0.204976 0.228009 -0.951838 170 165 161 1.000000
-0.099423 -0.797183 -0.541831 0.866816 -0.133389 0.480455 255 255 255 1.000000
0.108580 0.335838 0.403953 0.888800 0.375310 -0.263016 77 77 77 0.800000
0.076962 -0.808154 -0.428414 0.000000 -1.000000 -0.000000 255 247 247 1.000000
-0.016207 0.121035 -0.293421 -0.823730 -0.131294 0.551571 170 165 161 1.000000
0.107512 -0.793118 -0.514440 -0.953920 -0.183144 0.237686 255 255 255 1.000000
0.061305 -0.808154 -0.425279 0.000000 1.000000 0.000000 255 255 255 1.000000
0.010249 0.477658 0.075612 0.528100 0.838342 0.135253 170 165 161 1.000000
-0.102657 -0.808154 -0.531074 0.000000 -1.000000 -0.000000 255 247 247 1.000000
-0.117685 0.323795 0.476212 0.854897 -0.426852 -0.294870 51 51 51 0.800000
-0.012933 0.460013 0.460052 -0.227323 0.757880 0.611509 26 26 26 0.800000
-0.013131 0.398040 0.519941 0.084744 -0.480625 -0.872822 30 30 30 0.800000
-0.013630 -0.181386 -0.371923 -0.202938 0.226752 -0.952575 170 165 161 1.000000
0.099865 0.358020 0.409643 -0.899793 -0.384403 0.206414 27 27 27 0.800000
-0.036956 -0.794742 -0.593282 0.311883 -0.163914 0.935874 255 255 255 1.000000
0.012329 -0.763644 -0.501095 0.705571 0.041482 -0.707424 255 247 247 1.000000
-0.014767 0.502057 -0.027962 -0.007726 -0.987205 -0.159268 170 165 161 1.000000
0.011736 0.217687 -0.276867 0.432816 0.208758 -0.876978 170 165 161 1.000000
-0.118508 0.294230 0.382636 0.806884 -0.366243 0.463470 70 70 70 0.800000
-0.054396 0.420820 0.489911 -0.604905 0.455312 0.653285 28 28 28 0.800000
-0.048235 0.426074 0.400245 0.000000 -0.996195 0.087156 170 165 161 1.000000
-0.009504 -0.799062 -0.512171 1.000000 0.000000 0.000000 255 247 247 1.000000
-0.033136 -0.808154 -0.530080 0.000000 -1.000000 -0.000000 255 247 247 1.000000
0.034821 -0.774261 -0.497825 0.189359 0.980391 -0.054561 255 247 247 1.000000
0.088209 -0.774261 -0.461227 -0.428114 -0.895015 -0.125164 255 255 255 1.000000
0.014347 0.446856 0.264451 -0.435207 0.888837 0.143397 170 165 161 1.000000
0.006332 0.052830 -0.309919 -0.860078 -0.118141 0.496296 170 165 161 1.000000
-0.014831 0.416784 -0.229311 -0.474395 0.203855 -0.856383 170 165 161 1.000000
0.087293 0.389639 0.456161 0.876182 0.420896 0.234845 18 18 18 0.800000
0.000831 0.463518 -0.254943 -0.684691 -0.169786 0.708781 170 165 161 1.000000
-0.109946 0.277188 0.355391 -0.717503 0.348682 -0.603001 24 24 24 0.800000
-0.079977 0.319529 0.534350 -0.579180 0.459589 0.673297 73 73 73 0.800000
-0.001537 0.383013 -0.268669 0.073640 0.232324 -0.969847 170 165 161 1.000000
-0.014716 0.455102 0.263123 0.020231 0.987033 0.159240 170 165 161 1.000000
-0.071412 0.287602 0.328938 0.516093 -0.337554 0.787214 31 31 31 0.800000
-0.014785 0.494732 0.017433 -0.003282 -0.987229 -0.159272 170 165 161 1.000000
-0.003886 0.430432 0.315525 0.000000 -0.866022 0.500006 170 165 161 1.000000
-0.118603 0.278414 0.517250 -0.751697 0.448618 0.483419 67 67 67 0.800000
-0.016125 0.446798 0.297150 0.999916 -0.012806 -0.002063 170 165 161 1.000000
-0.030443 0.442846 0.469944 -0.424483 0.700037 0.574250 47 47 47 0.800000
-0.055595 -0.774261 -0.516752 0.275270 -0.949769 0.148882 255 255 255 1.000000
-0.057538 0.435574 0.428108 0.772948 -0.634012 0.024075 62 62 62 0.800000
0.081718 0.403544 0.417293 0.909253 0.393963 -0.134361 64 64 64 0.800000
0.031587 0.423057 0.364738 -0.866025 -0.044491 -0.498017 170 165 161 1.000000
0.001298 0.514310 -0.242171 -0.839281 -0.126657 0.528740 170 165 161 1.000000
0.015317 -0.808154 -0.596203 0.000000 -1.000000 -0.000000 255 247 247 1.000000
0.007574 0.146918 -0.286095 -0.547373 -0.193800 0.814140 170 165 161 1.000000
0.124196 0.244160 0.364922 0.779380 0.362057 -0.511353 23 23 23 0.800000
0.010436 0.033708 -0.312452 0.142256 -0.229214 0.962925 170 165 161 1.000000
-0.029407 0.442560 0.483609 -0.437756 0.080004 0.895527 170 165 161 1.000000
0.106328 0.278246 0.360056 -0.729314 -0.354034 0.585458 22 22 22 0.800000
0.050917 0.422440 0.487016 0.624802 0.455694 0.634007 24 24 24 0.800000
-0.013559 0.466383 0.193578 -0.289265 -0.945030 -0.152463 170 165 161 1.000000
-0.112924 -0.776147 -0.493100 -0.914014 0.403346 -0.043473 255 247 247 1.000000
-0.011000 0.524635 -0.212883 0.000000 0.060578 0.998163 170 165 161 1.000000
0.009522 0.533572 -0.186509 0.000000 0.900811 0.434211 170 165 161 1.000000
-0.011287 -0.736634 -0.472252 0.544739 -0.041680 -0.837569 255 255 255 1.000000
0.115858 0.272742 0.370953 0.778600 0.361947 -0.512617 30 30 30 0.800000
0.006625 0.521059 -0.177867 -0.909205 -0.065617 0.411145 170 165 161 1.000000
-0.030920 -0.774261 -0.566232 0.144117 -0.912011 0.384013 255 255 255 1.000000
0.014186 -0.777310 -0.377042 0.128957 0.371455 0.919452 255 247 247 1.000000
-0.080421 0.420342 0.430508 0.912737 -0.408177 -0.017369 68 68 68 0.800000
0.091354 0.363461 0.393073 -0.834306 -0.368064 0.410441 22 22 22 0.800000
0.046251 0.432633 0.365442 0.000000 0.996033 -0.088983 170 165 161 1.000000
-0.033298 -0.774261 -0.493215 -0.168211 0.985277 -0.030571 255 247 247 1.000000
0.047380 0.298557 0.563512 -0.379735 -0.473653 -0.794641 19 19 19 0.800000
-0.015968 0.513705 -0.151170 0.264094 0.952185 0.153617 170 165 161 1.000000
-0.006094 -0.808154 -0.439983 0.000000 1.000000 0.000000 255 255 255 1.000000
0.000692 -0.190864 -0.406911 -0.642958 0.178422 -0.744830 170 165 161 1.000000
0.132210 0.252313 0.508202 -0.819955 -0.438745 -0.367664 26 26 26 0.800000
-0.010701 0.470534 0.132990 0.943202 -0.327977 -0.052916 170 165 161 1.000000
0.021878 -0.808154 -0.497378 0.000000 -1.000000 -0.000000 255 247 247 1.000000
-0.015324 0.470168 0.445524 0.316920 -0.844746 -0.431237 28 28 28 0.800000
0.037778 -0.808154 -0.501541 0.000000 -1.000000 -0.000000 255 247 247 1.000000
0.000567 0.005721 -0.359671 -0.595670 0.187117 -0.781130 170 165 161 1.000000
0.037127 0.443765 0.397271 0.592655 0.627208 -0.505342 63 63 63 0.800000
-0.019574 -0.808154 -0.461231 0.000000 -1.000000 -0.000000 255 247 247 1.000000
-0.015575 -0.774261 -0.550512 -0.034570 0.971868 -0.232975 255 247 247 1.000000
-0.010673 0.188009 -0.283488 0.521145 0.197636 -0.830270 170 165 161 1.000000
0.098556 0.291876 0.357158 0.703566 0.349242 -0.618889 25 25 25 0.800000
-0.007561 0.457853 0.365896 0.521451 -0.849303 0.082303 170 165 161 1.000000
0.006196 -0.342979 -0.404295 -0.884001 -0.108258 0.454777 170 165 161 1.000000
0.021071 0.424740 0.364814 0.956940 0.025830 0.289133 170 165 161 1.000000
-0.016771 0.430119 0.446478 0.000000 0.996195 -0.087156 170 165 161 1.000000
-0.106117 0.352629 0.469325 -0.858846 0.425307 0.285478 26 26 26 0.800000
0.136692 0.278047 0.471850 0.895117 0.410593 0.173719 39 39 39 0.800000
0.007401 0.229581 -0.266617 -0.597638 -0.185667 0.779972 170 165 161 1.000000
-0.084248 -0.808154 -0.457495 0.000000 1.000000 0.000000 255 255 255 1.000000
0.001800 0.435123 0.364687 -0.228759 0.969582 -0.087066 170 165 161 1.000000
-0.076351 0.372484 0.366694 0.684458 -0.340962 0.644408 37 37 37 0.800000
0.094826 0.376286 0.454836 -0.891334 -0.412652 -0.187729 24 24 24 0.800000
0.020843 0.366072 0.358107 0.098358 -0.419282 -0.902512 170 165 161 1.000000
-0.119605 0.326433 0.465344 0.887192 -0.415290 -0.201056 29 29 29 0.800000
-0.006599 0.468805 0.326966 0.605117 0.070838 0.792979 170 165 161 1.000000
-0.011370 -0.512941 -0.442692 0.341474 -0.217652 0.914343 170 165 161 1.000000
0.018593 0.446860 0.326428 -0.006140 0.327199 0.944936 170 165 161 1.000000
-0.012022 0.431409 0.461225 0.000000 0.996195 -0.087156 170 165 161 1.000000
-0.010693 0.362228 0.333289 -0.142686 0.322174 -0.935866 66 66 66 0.800000
0.058270 0.423331 0.384091 0.000000 0.996033 -0.088983 170 165 161 1.000000
0.028289 -0.774261 -0.530534 0.152415 0.963090 -0.221874 255 247 247 1.000000
-0.065781 0.428761 0.419740 -0.995269 -0.008645 -0.096767 170 165 161 1.000000
0.001437 -0.624086 -0.515673 -1.000000 0.000000 -0.000000 170 165 161 1.000000
0.093987 0.311103 0.524236 0.678552 0.447483 0.582517 69 69 69 0.800000
-0.073474 0.398589 0.380742 0.733841 -0.352294 0.580833 21 21 21 0.800000
0.113460 0.318623 0.477144 0.838324 0.434451 0.329341 37 37 37 0.800000
-0.037845 0.263991 0.590390 0.212242 -0.470125 -0.856700 29 29 29 0.800000
0.094489 -0.782363 -0.429220 -0.812271 -0.311960 -0.492845 255 255 255 1.000000
-0.014343 -0.142811 -0.354513 -0.357601 -0.216256 0.908491 170 165 161 1.000000
0.006046 0.024732 -0.320811 0.887135 -0.106870 0.448966 170 165 161 1.000000
0.006825 -0.787736 -0.591183 -1.000000 0.000000 0.000000 255 247 247 1.000000
0.123218 0.284276 0.493139 0.827500 0.437119 0.352379 31 31 31 0.800000
-0.010318 -0.604838 -0.471979 0.605685 0.184261 -0.774076 170 165 161 1.000000
-0.086904 -0.774261 -0.503290 0.414478 -0.906802 0.076936 255 255 255 1.000000
-0.022618 -0.808154 -0.435257 0.000000 1.000000 0.000000 255 255 255 1.000000
0.074670 0.419703 0.410734 -0.897637 -0.382514 0.218931 35 35 35 0.800000
0.034507 -0.808154 -0.532200 0.000000 1.000000 0.000000 255 255 255 1.000000
-0.138975 0.260584 0.498423 -0.840362 0.431902 0.327494 21 21 21 0.800000
-0.014933 0.448640 -0.221611 -0.504159 0.199988 -0.840136 170 165 161 1.000000
-0.067507 0.302509 0.332316 -0.519822 0.337692 -0.784697 16 16 16 0.800000
0.019421 0.418909 0.352379 -0.259671 -0.319766 0.911219 39 39 39 0.800000
0.000574 -0.022280 -0.366387 0.598398 -0.186645 0.779156 170 165 161 1.000000
-0.065601 0.281136 0.564772 0.427375 -0.474136 -0.769770 19 19 19 0.800000
-0.148893 0.255793 0.463729 -0.904438 0.413353 0.105509 60 60 60 0.800000
0.006789 0.201684 -0.273959 -0.762025 -0.149955 0.629946 170 165 161 1.000000
-0.001171 -0.087247 -0.381290 0.042794 -0.232743 0.971596 170 165 161 1.000000
-0.003350 0.526136 -0.240004 0.658897 -0.175247 0.731535 170 165 161 1.000000
0.142520 0.253706 0.408507 0.896558 0.381592 -0.224880 17 17 17 0.800000
0.008162 -0.203547 -0.377097 -0.399439 0.212293 -0.891841 170 165 161 1.000000
-0.010881 0.444937 0.290462 0.923363 -0.379027 -0.061150 170 165 161 1.000000
0.070627 -0.774261 -0.457898 -0.354992 -0.923467 -0.145563 255 255 255 1.000000
0.012487 0.441250 -0.216492 0.656108 -0.174756 0.734154 170 165 161 1.000000
-0.119000 0.327628 0.448959 0.904029 -0.413472 -0.108499 59 59 59 0.800000
-0.081770 -0.796363 -0.409158 -0.708900 0.143365 0.690584 255 247 247 1.000000
-0.016663 -0.721018 -0.478836 -0.871471 0.041509 0.488687 255 247 247 1.000000
-0.085677 0.235888 0.317647 0.507305 -0.337204 0.793054 75 75 75 0.800000
0.067982 0.408876 0.475131 -0.737974 -0.447672 -0.504959 35 35 35 0.800000
-0.053171 0.350835 0.531275 -0.480389 0.470942 0.739892 26 26 26 0.800000
0.097940 0.317567 0.509547 0.726972 0.447970 0.520418 44 44 44 0.800000
-0.016637 0.473489 0.148459 0.424141 -0.894036 -0.144238 170 165 161 1.000000
-0.003819 0.480958 -0.246590 0.815189 0.134926 -0.563259 170 165 161 1.000000
-0.125036 0.292952 0.393005 0.839855 -0.370840 0.396385 17 17 17 0.800000
-0.018856 0.493697 0.007952 -0.939026 0.339455 0.054768 170 165 161 1.000000
-0.032812 -0.774261 -0.393152 0.148503 -0.883276 -0.444715 255 255 255 1.000000
0.019432 0.380960 0.358184 -0.605390 -0.318695 -0.729339 170 165 161 1.000000
0.008525 -0.787063 -0.487572 -0.999859 -0.000000 0.016815 255 247 247 1.000000
-0.016739 0.290467 -0.253828 -0.925564 -0.087668 0.368302 170 165 161 1.000000
-0.106693 -0.795697 -0.450533 -0.932097 0.152342 0.328614 255 247 247 1.000000
0.076771 -0.808154 -0.560355 0.000000 -1.000000 -0.000000 255 247 247 1.000000
0.040803 0.325749 0.551480 0.355785 0.473264 0.805877 28 28 28 0.800000
0.016252 0.382696 0.338966 -0.179980 -0.316558 0.931342 35 35 35 0.800000
-0.118994 0.308348 0.488440 -0.810980 0.439676 0.386000 88 88 88 0.800000
0.001716 -0.581018 -0.502259 -0.984167 0.041290 -0.172367 170 165 161 1.000000
0.011297 0.538176 -0.197102 0.000000 -0.977287 -0.211921 170 165 161 1.000000
0.016439 -0.808154 -0.560933 0.000000 1.000000 0.000000 255 255 255 1.000000
0.036112 0.405429 0.506787 -0.426039 -0.473451 -0.770931 72 72 72 0.800000
-0.016260 0.459571 0.184398 -0.336596 -0.929629 -0.149978 170 165 161 1.000000
-0.003813 0.243180 -0.307335 -0.797602 0.140515 -0.586588 170 165 161 1.000000
0.086596 -0.775587 -0.554862 0.643996 0.564449 -0.516398 255 247 247 1.000000
-0.014618 -0.404362 -0.417024 -0.433149 -0.208718 0.876823 170 165 161 1.000000
0.007275 -0.705096 -0.482512 -0.961665 -0.068684 0.265486 170 165 161 1.000000
-0.019255 -0.807347 -0.377358 0.160997 -0.009721 -0.986907 255 255 255 1.000000
0.012373 0.138726 -0.294934 0.617539 0.182141 -0.765160 170 165 161 1.000000
0.047482 0.379816 0.514771 -0.525309 -0.468363 -0.710413 30 30 30 0.800000
-0.010876 0.038816 -0.311424 0.445130 -0.207364 0.871125 170 165 161 1.000000
-0.003743 -0.630167 -0.511731 -1.000000 0.000000 -0.000000 170 165 161 1.000000
0.013300 0.519852 -0.205326 -1.000000 0.000000 0.000000 170 165 161 1.000000
0.026612 -0.808154 -0.386428 0.000000 -1.000000 -0.000000 255 247 247 1.000000
-0.020826 0.421655 0.365335 0.000000 -0.996033 0.088983 170 165 161 1.000000
-0.010560 -0.086795 -0.348797 -0.552614 -0.192997 0.810783 170 165 161 1.000000
-0.058749 -0.808154 -0.418225 0.000000 -1.000000 -0.000000 255 247 247 1.000000
-0.014145 0.511801 -0.198779 -1.000000 0.000000 0.000000 170 165 161 1.000000
-0.009504 -0.770766 -0.504067 1.000000 0.000000 0.000000 255 247 247 1.000000
-0.043542 -0.800040 -0.384259 0.379119 -0.099010 -0.920036 255 255 255 1.000000
-0.104274 0.362488 0.409280 -0.897823 0.376861 -0.227794 27 27 27 0.800000
-0.035521 0.249937 0.298639 0.209717 -0.319041 0.924246 33 33 33 0.800000
-0.112326 0.332570 0.477328 -0.838233 0.432566 0.332042 44 44 44 0.800000
-0.010874 0.479637 0.097498 -0.903009 -0.424138 -0.068425 170 165 161 1.000000
0.046378 -0.774261 -0.542813 0.237414 0.931468 -0.275685 255 247 247 1.000000
-0.039473 0.317621 0.558304 0.302615 -0.474879 -0.826386 31 31 31 0.800000
-0.074585 0.318361 0.342583 0.586717 -0.339007 0.735416 36 36 36 0.800000
0.054680 -0.808154 -0.560589 0.000000 -1.000000 -0.000000 255 247 247 1.000000
0.036702 -0.808154 -0.542373 0.000000 1.000000 0.000000 255 255 255 1.000000
0.086827 0.242802 0.322726 0.550768 0.336076 -0.764008 21 21 21 0.800000
-0.003467 0.549222 -0.196819 -1.000000 0.000000 0.000000 170 165 161 1.000000
-0.061515 -0.808154 -0.433682 0.000000 -1.000000 -0.000000 255 247 247 1.000000
0.028617 0.433876 0.476464 -0.000001 0.996033 -0.088985 170 165 161 1.000000
-0.014654 0.030899 -0.321332 -0.426389 0.209466 -0.879953 170 165 161 1.000000
0.009757 0.472145 0.113235 0.668930 0.733836 0.118394 170 165 161 1.000000
-0.051493 -0.808154 -0.392007 0.000000 1.000000 0.000000 255 255 255 1.000000
-0.093505 0.389128 0.450924 0.888550 -0.415284 -0.194981 32 32 32 0.800000
-0.008862 0.303640 -0.253951 -0.934001 -0.082731 0.347560 170 165 161 1.000000
-0.016775 0.235655 -0.270194 0.929040 -0.085679 0.359921 170 165 161 1.000000
0.015937 -0.695799 -0.486259 -0.004169 0.998575 -0.053211 170 165 161 1.000000
0.072036 -0.774261 -0.431041 0.351366 0.896484 0.269922 255 247 247 1.000000
-0.059408 0.282900 0.320006 -0.435506 0.333086 -0.836295 30 30 30 0.800000
-0.069349 0.417359 0.387281 -0.781398 0.361857 -0.508406 24 24 24 0.800000
0.008481 0.490427 0.023691 -0.982421 0.184296 0.029730 170 165 161 1.000000
-0.093712 -0.808154 -0.546376 0.000000 1.000000 0.000000 255 255 255 1.000000
-0.077342 0.406727 0.393369 0.822557 -0.368605 0.433048 39 39 39 0.800000
-0.091922 0.329049 0.516273 -0.669087 0.451613 0.590227 31 31 31 0.800000
0.030783 0.267895 0.586281 -0.205770 -0.475054 -0.855560 28 28 28 0.800000
-0.011144 -0.496525 -0.438797 0.388744 -0.213357 0.896302 170 165 161 1.000000
0.126520 0.301977 0.466197 -0.896329 -0.410648 -0.167219 18 18 18 0.800000
0.043961 0.437008 0.461561 0.613277 0.662099 0.430717 32 32 32 0.800000
0.037396 -0.803025 -0.591991 0.347699 0.062275 -0.935536 255 247 247 1.000000
0.073700 0.355743 0.361161 -0.657929 -0.339876 0.672022 28 28 28 0.800000
-0.029326 0.413925 0.352216 0.311340 -0.321272 0.894344 29 29 29 0.800000
0.005569 0.456924 0.464547 0.100165 0.752021 0.651484 31 31 31 0.800000
0.037866 -0.808154 -0.556359 0.000000 1.000000 0.000000 255 255 255 1.000000
0.006743 -0.808154 -0.403419 0.000000 -1.000000 -0.000000 255 247 247 1.000000
-0.039580 0.281833 0.579042 0.257295 -0.473018 -0.842646 28 28 28 0.800000
0.013660 0.455426 0.315976 0.012970 -0.989527 -0.143765 170 165 161 1.000000
0.082812 0.326690 0.356000 0.663450 0.341062 -0.665966 44 44 44 0.800000
-0.053100 0.308753 0.555772 -0.401620 0.475037 0.782970 23 23 23 0.800000
0.015854 -0.808154 -0.445640 0.000000 1.000000 0.000000 255 255 255 1.000000
-0.032694 0.463401 0.417790 0.681280 -0.709356 0.180754 38 38 38 0.800000
-0.009666 -0.054343 -0.340250 -0.772223 -0.147126 0.618082 170 165 161 1.000000
0.100845 0.322982 0.381008 -0.775120 -0.361453 0.518210 25 25 25 0.800000
-0.003754 -0.309065 -0.439758 -0.770050 0.148622 -0.620431 170 165 161 1.000000
0.090770 -0.774261 -0.492604 -0.441333 -0.896998 0.024905 255 255 255 1.000000
-0.122548 0.318846 0.435059 0.912860 -0.407996 -0.015027 35 35 35 0.800000
-0.098184 0.377184 0.410103 0.899127 -0.378194 0.220318 41 41 41 0.800000
-0.082239 -0.774261 -0.556774 0.375565 -0.869053 0.322022 255 255 255 1.000000
-0.021402 0.423815 0.374420 0.000000 -0.996195 0.087156 170 165 161 1.000000
0.021970 -0.808154 -0.512656 0.000000 -1.000000 -0.000000 255 247 247 1.000000
-0.056165 0.411656 0.494239 0.601003 -0.455999 -0.656399 16 16 16 0.800000
0.008444 -0.721957 -0.485039 0.958847 -0.041613 0.280857 170 165 161 1.000000
0.102994 0.340306 0.395620 0.853761 0.369124 -0.367204 22 22 22 0.800000
0.010022 0.445614 0.393936 -0.946459 0.319661 -0.045086 170 165 161 1.000000
0.103547 0.353413 0.437095 -0.910969 -0.408802 -0.054930 41 41 41 0.800000
0.072857 -0.808154 -0.468687 0.000000 1.000000 0.000000 255 255 255 1.000000
0.080989 0.284300 0.334932 0.583118 0.335599 -0.739828 38 38 38 0.800000
0.009778 0.244588 -0.270575 -0.018335 0.231531 -0.972655 170 165 161 1.000000
0.007794 -0.732864 -0.483436 0.935197 -0.007112 0.354055 170 165 161 1.000000
-0.082342 0.262837 0.565965 0.495247 -0.469705 -0.730827 16 16 16 0.800000
0.026069 -0.774261 -0.381346 -0.126062 -0.863758 -0.487884 255 255 255 1.000000
0.011909 -0.178796 -0.371052 0.482137 0.202879 -0.852282 170 165 161 1.000000
0.034471 0.401009 0.353624 0.426096 0.333198 -0.841084 18 18 18 0.800000
-0.073148 0.267284 0.568565 -0.448001 0.473113 0.758590 17 17 17 0.800000
0.054028 0.382190 0.356873 0.589020 0.335450 -0.735207 10 10 10 0.800000
0.043315 0.338404 0.542274 0.408619 0.473679 0.780166 51 51 51 0.800000
-0.102957 -0.800164 -0.441516 0.905754 -0.097421 -0.412454 255 255 255 1.000000
0.018020 -0.808154 -0.429864 0.000000 -1.000000 -0.000000 255 247 247 1.000000
-0.017386 0.412405 0.512600 0.152524 -0.476001 -0.866117 36 36 36 0.800000
-0.066218 -0.808154 -0.480095 0.000000 -1.000000 -0.000000 255 247 247 1.000000
-0.049286 -0.774261 -0.394754 0.223733 -0.873520 -0.432326 255 255 255 1.000000
0.010828 0.458678 0.240289 -0.390058 0.909036 0.146656 170 165 161 1.000000
0.011121 0.474041 0.146146 -0.310497 0.938440 0.151400 170 165 161 1.000000
-0.012010 0.511274 -0.128705 0.691952 -0.712728 -0.114988 170 165 161 1.000000
0.005759 -0.513526 -0.445633 -0.959950 -0.064882 0.272556 170 165 161 1.000000
-0.076929 0.306044 0.543907 -0.539733 0.465035 0.701734 45 45 45 0.800000
0.085929 -0.774261 -0.429701 -0.406918 -0.872933 -0.269081 255 255 255 1.000000
0.021555 0.403947 0.347993 -0.268533 -0.320723 0.908310 39 39 39 0.800000
0.011306 0.524891 -0.169102 0.271825 -0.950062 -0.153275 170 165 161 1.000000
-0.003673 0.425443 -0.263911 -0.743911 0.155679 -0.649893 170 165 161 1.000000
-0.103064 -0.774261 -0.453079 0.471379 -0.867467 -0.159068 255 255 255 1.000000
-0.133661 0.292598 0.468670 0.891900 -0.415192 -0.179247 37 37 37 0.800000
-0.046802 0.410997 0.499902 0.510737 -0.468246 -0.721036 26 26 26 0.800000
-0.085071 -0.774261 -0.524320 -0.401844 0.898409 -0.177152 255 247 247 1.000000
0.002874 0.438126 0.302607 0.000000 0.000000 -1.000000 170 165 161 1.000000
0.016434 0.510333 -0.110369 -0.975335 0.217911 0.035153 170 165 161 1.000000
0.030391 0.449995 0.459069 -0.503427 -0.716169 -0.483387 36 36 36 0.800000
0.015325 -0.740128 -0.480027 0.910317 0.041798 0.411797 255 247 247 1.000000
-0.009504 -0.781656 -0.505215 1.000000 0.000000 0.000000 255 247 247 1.000000
0.081464 0.406339 0.430921 -0.912609 -0.407704 -0.030372 79 79 79 0.800000
-0.022822 0.340993 0.326949 0.199036 -0.319643 0.926398 29 29 29 0.800000
-0.024811 0.432227 0.470575 0.000000 -0.996195 0.087156 170 165 161 1.000000
-0.000055 -0.159657 -0.398972 0.404029 -0.213096 0.889579 170 165 161 1.000000
0.097219 0.348117 0.391949 -0.830698 -0.367793 0.417934 31 31 31 0.800000
0.108051 0.345932 0.459106 -0.895119 -0.410593 -0.173709 26 26 26 0.800000
0.042439 0.434154 0.474036 0.670287 0.066034 0.739158 170 165 161 1.000000
0.079451 0.374896 0.382451 -0.756113 -0.358567 0.547470 38 38 38 0.800000
0.006661 0.420262 -0.227227 -0.783044 0.144027 -0.605061 170 165 161 1.000000
0.071600 0.265196 0.567821 -0.465871 -0.472212 -0.748318 55 55 55 0.800000
-0.006352 0.476284 0.416653 -0.116757 0.971431 -0.206614 30 30 30 0.800000
0.084657 -0.790686 -0.416407 -0.755835 -0.213946 -0.618822 255 255 255 1.000000
-0.006849 0.528068 -0.192661 1.000000 0.000000 0.000000 170 165 161 1.000000
0.016600 -0.774261 -0.513902 -0.021158 -0.996653 0.078964 255 255 255 1.000000
0.029128 0.253830 0.298021 0.186500 0.316091 -0.930217 36 36 36 0.800000
-0.013445 -0.036727 -0.329215 -0.155809 -0.228741 0.960938 170 165 161 1.000000
-0.009504 -0.786672 -0.538242 -1.000000 0.000000 0.000000 255 255 255 1.000000
0.012455 0.046394 -0.310452 -0.647643 0.176442 -0.741234 170 165 161 1.000000
0.096917 0.369334 0.435428 0.910331 0.409099 0.062735 30 30 30 0.800000
-0.014168 0.480463 0.106097 0.153208 0.975579 0.157392 170 165 161 1.000000
-0.077451 0.417447 0.401372 -0.865677 0.373209 -0.333643 27 27 27 0.800000
0.098352 -0.800380 -0.537959 0.886456 0.094523 -0.453057 255 247 247 1.000000
-0.108648 0.329776 0.486377 -0.788115 0.444014 0.426294 36 36 36 0.800000
0.050948 -0.774261 -0.473366 -0.268300 -0.960637 -0.072049 255 255 255 1.000000
-0.013626 0.274507 -0.255119 0.198089 0.226981 -0.953541 170 165 161 1.000000
0.056725 -0.774261 -0.486510 -0.296229 -0.955106 -0.004572 255 255 255 1.000000
0.007776 -0.598115 -0.470861 0.485871 -0.202399 0.850273 170 165 161 1.000000
0.011397 -0.092019 -0.342426 0.358784 -0.216151 0.908049 170 165 161 1.000000
-0.059813 0.385185 0.507566 0.577756 -0.459808 -0.674370 20 20 20 0.800000
0.021243 -0.774261 -0.499152 0.043474 0.997452 -0.056566 255 247 247 1.000000
-0.053483 -0.808154 -0.559348 0.000000 -1.000000 -0.000000 255 247 247 1.000000
-0.017000 0.441904 0.349512 0.144744 0.107679 0.983593 170 165 161 1.000000
0.016477 0.464321 0.180066 0.999558 -0.029357 -0.004734 170 165 161 1.000000
0.124712 0.288139 0.394505 -0.857616 -0.369242 0.357987 66 66 66 0.800000
0.006997 0.454930 0.341230 -0.641309 -0.765431 0.053277 170 165 161 1.000000
-0.003112 -0.348503 -0.444445 0.570252 0.191366 -0.798869 170 165 161 1.000000
0.097986 -0.780787 -0.435972 -0.839038 -0.330927 -0.431859 255 255 255 1.000000
0.078397 0.359510 0.505400 -0.678122 -0.447467 -0.583030 16 16 16 0.800000
0.136801 0.266091 0.398630 -0.881102 -0.369498 0.295180 19 19 19 0.800000
-0.007196 0.476137 0.435455 -0.137523 0.967148 0.213804 19 19 19 0.800000
-0.003176 0.468494 0.452498 -0.047632 0.816022 0.576054 17 17 17 0.800000
0.013669 0.455767 -0.214122 0.888604 -0.106212 0.446208 170 165 161 1.000000
0.084118 0.338167 0.516009 0.668801 0.447093 0.593980 23 23 23 0.800000
0.084770 0.323446 0.524405 0.648482 0.451325 0.613006 27 27 27 0.800000
-0.008047 0.376664 0.337760 0.118468 -0.322934 0.938978 29 29 29 0.800000
0.024466 0.428606 0.500441 0.314984 0.471864 0.823486 26 26 26 0.800000
0.040901 0.451330 0.418615 -0.722861 -0.676897 0.138864 27 27 27 0.800000
-0.003716 -0.808154 -0.411586 0.000000 -1.000000 -0.000000 255 247 247 1.000000
-0.051731 0.262862 0.583214 0.304429 -0.474931 -0.825690 29 29 29 0.800000
-0.068719 -0.808154 -0.430440 0.000000 -1.000000 -0.000000 255 247 247 1.000000
-0.019285 -0.667375 -0.493291 -0.014106 -0.499370 0.866274 170 165 161 1.000000
-0.112089 0.294072 0.513914 -0.739539 0.449637 0.500908 22 22 22 0.800000
0.110411 -0.802369 -0.492417 0.996510 0.070113 -0.045301 255 247 247 1.000000
0.037670 0.363709 0.341589 0.421671 0.332973 -0.843400 31 31 31 0.800000
0.006825 -0.800248 -0.535502 -1.000000 0.000000 0.000000 255 247 247 1.000000
0.095173 0.374789 0.442939 0.904927 0.410405 0.112583 21 21 21 0.800000
-0.134642 0.289603 0.429945 -0.914217 0.401789 -0.052647 40 40 40 0.800000
-0.031450 -0.808154 -0.591745 0.000000 -1.000000 -0.000000 255 247 247 1.000000
0.009428 -0.808154 -0.419321 0.000000 1.000000 0.000000 255 255 255 1.000000
0.007388 0.399270 -0.226238 0.601207 0.185048 -0.777372 170 165 161 1.000000
0.024266 0.431404 0.357358 0.317289 -0.084386 -0.944567 170 165 161 1.000000
-0.021901 0.336942 0.551986 0.114477 -0.478876 -0.870386 31 31 31 0.800000
-0.110901 -0.796129 -0.465804 0.969836 -0.146911 -0.194510 255 255 255 1.000000
-0.031237 -0.774261 -0.439072 -0.152828 0.956874 0.247055 255 247 247 1.000000
-0.085963 0.322575 0.350957 -0.651953 0.337892 -0.678812 16 16 16 0.800000
0.050217 0.305731 0.326817 -0.444634 -0.334055 0.831089 24 24 24 0.800000
0.082466 0.363196 0.493364 0.720501 0.448069 0.529257 36 36 36 0.800000
0.021428 0.307724 0.565854 0.181037 0.477153 0.859971 25 25 25 0.800000
-0.114598 0.316139 0.391837 -0.822361 0.368577 -0.433443 27 27 27 0.800000
-0.009836 -0.420683 -0.421999 0.738746 -0.156077 0.655663 170 165 161 1.000000
-0.013353 0.476854 0.128720 -0.332089 -0.931207 -0.150233 170 165 161 1.000000
-0.102608 -0.774261 -0.524212 0.468844 -0.866690 0.170394 255 255 255 1.000000
0.129557 0.288233 0.476243 -0.871598 -0.422991 -0.247782 27 27 27 0.800000
-0.077018 0.437206 0.416632 0.000000 -0.996033 0.088983 170 165 161 1.000000
-0.040492 -0.774261 -0.460173 0.202680 -0.969045 -0.140972 255 255 255 1.000000
-0.016969 0.385538 0.526561 0.115183 -0.478829 -0.870319 27 27 27 0.800000
-0.039007 -0.774261 -0.504070 0.196523 -0.976638 0.086933 255 255 255 1.000000
0.054364 0.379673 0.510403 0.582228 0.462166 0.668889 45 45 45 0.800000
-0.018649 -0.760236 -0.479422 0.906179 -0.041774 -0.420826 255 255 255 1.000000
-0.122236 0.319338 0.419067 0.912180 -0.395317 0.107940 32 32 32 0.800000
-0.015400 -0.774261 -0.460750 0.000000 -0.996426 -0.084475 255 255 255 1.000000
0.013919 -0.049863 -0.337286 0.985646 0.039097 -0.164233 170 165 161 1.000000
-0.072033 -0.808154 -0.573533 0.000000 -1.000000 -0.000000 255 247 247 1.000000
0.040292 -0.808154 -0.441329 0.000000 1.000000 0.000000 255 255 255 1.000000
0.013426 -0.583249 -0.465587 0.869107 0.114543 -0.481179 170 165 161 1.000000
0.015066 0.431997 0.355478 -0.999811 0.003508 -0.019102 170 165 161 1.000000
0.058070 -0.774261 -0.550799 -0.287850 -0.907080 0.307160 255 255 255 1.000000
0.074606 0.430006 0.437660 -0.988379 -0.013527 -0.151410 170 165 161 1.000000
0.013210 0.492017 0.033997 -0.184575 -0.970272 -0.156537 170 165 161 1.000000
0.100062 0.361253 0.432905 -0.912106 -0.408110 -0.038833 22 22 22 0.800000
-0.010866 -0.345460 -0.402910 -0.448351 0.206992 -0.869561 170 165 161 1.000000
-0.054420 0.437695 0.455331 -0.871808 0.043589 0.487904 170 165 161 1.000000
-0.095309 -0.781051 -0.548011 -0.794236 0.327884 -0.511548 255 247 247 1.000000
-0.017171 0.283446 0.308667 0.125345 -0.322738 0.938152 26 26 26 0.800000
-0.008774 0.077266 -0.306124 -0.999745 0.005229 -0.021954 170 165 161 1.000000
-0.078086 0.269234 0.325883 -0.522339 0.337781 -0.782985 44 44 44 0.800000
0.013453 0.116187 -0.294757 0.857015 -0.119324 0.501286 170 165 161 1.000000
0.066253 -0.805964 -0.398796 -0.605712 -0.026460 -0.795244 255 255 255 1.000000
-0.105989 0.308254 0.511243 0.726841 -0.450464 -0.518445 30 30 30 0.800000
0.011447 0.261885 0.301062 0.063558 0.322506 -0.944431 21 21 21 0.800000
-0.033955 -0.774261 -0.590424 0.150901 -0.866075 0.476596 255 255 255 1.000000
-0.116369 0.275337 0.365160 -0.757844 0.357315 -0.545893 65 65 65 0.800000
0.006075 -0.430358 -0.425234 -0.902942 -0.099523 0.418080 170 165 161 1.000000
0.052999 0.426678 0.407150 0.000000 -0.996195 0.087156 170 165 161 1.000000
